# .PCD v0.7 - Point Cloud Data file format
VERSION 0.7
FIELDS x y z rgb
SIZE 4 4 4 4
TYPE F F F F
COUNT 1 1 1 1
WIDTH 1245
HEIGHT 1
VIEWPOINT 0 0 0 1 0 0 0
POINTS 1245
DATA ascii
100 117 207 2.341805152e-38
100 124 102 2.341805152e-38
100 132 90 2.341805152e-38
100 149 69 2.341805152e-38
100 161 59 2.341805152e-38
100 175 53 2.341805152e-38
100 190 196 2.341805152e-38
100 207 37 2.341805152e-38
100 213 190 2.341805152e-38
100 221 171 2.341805152e-38
100 229 186 2.341805152e-38
100 234 35 2.341805152e-38
100 237 227 2.341805152e-38
100 246 36 2.341805152e-38
100 256 222 2.341805152e-38
100 266 212 2.341805152e-38
100 270 391 2.341805152e-38
100 281 431 2.341805152e-38
100 290 412 2.341805152e-38
100 301 40 2.341805152e-38
100 310 358 2.341805152e-38
100 315 385 2.341805152e-38
100 320 446 2.341805152e-38
100 326 345 2.341805152e-38
100 330 345 2.341805152e-38
100 333 372 2.341805152e-38
100 338 443 2.341805152e-38
100 349 167 2.341805152e-38
100 358 438 2.341805152e-38
100 365 139 2.341805152e-38
100 369 113 2.341805152e-38
100 381 418 2.341805152e-38
100 393 404 2.341805152e-38
100 401 355 2.341805152e-38
105 99 181 2.341805152e-38
105 101 224 2.341805152e-38
105 104 264 2.341805152e-38
105 115 98 2.341805152e-38
105 123 81 2.341805152e-38
105 136 235 2.341805152e-38
105 153 69 2.341805152e-38
105 170 226 2.341805152e-38
105 185 217 2.341805152e-38
105 197 184 2.341805152e-38
105 203 429 2.341805152e-38
105 210 33 2.341805152e-38
105 214 411 2.341805152e-38
105 218 394 2.341805152e-38
105 224 395 2.341805152e-38
105 233 218 2.341805152e-38
105 241 410 2.341805152e-38
105 251 418 2.341805152e-38
105 264 407 2.341805152e-38
105 272 357 2.341805152e-38
105 279 40 2.341805152e-38
105 285 450 2.341805152e-38
105 291 368 2.341805152e-38
105 300 449 2.341805152e-38
105 311 400 2.341805152e-38
105 318 358 2.341805152e-38
105 323 179 2.341805152e-38
105 329 59 2.341805152e-38
105 333 379 2.341805152e-38
105 337 374 2.341805152e-38
105 341 367 2.341805152e-38
105 346 75 2.341805152e-38
105 355 307 2.341805152e-38
105 361 151 2.341805152e-38
105 365 139 2.341805152e-38
105 368 67 2.341805152e-38
105 379 420 2.341805152e-38
105 391 406 2.341805152e-38
105 397 366 2.341805152e-38
110 99 160 2.341805152e-38
110 99 232 2.341805152e-38
110 101 206 2.341805152e-38
110 112 116 2.341805152e-38
110 121 266 2.341805152e-38
110 135 73 2.341805152e-38
110 155 62 2.341805152e-38
110 164 318 2.341805152e-38
110 170 312 2.341805152e-38
110 179 305 2.341805152e-38
110 190 53 2.341805152e-38
110 198 205 2.341805152e-38
110 201 51 2.341805152e-38
110 204 251 2.341805152e-38
110 213 255 2.341805152e-38
110 220 257 2.341805152e-38
110 227 47 2.341805152e-38
110 233 405 2.341805152e-38
110 241 247 2.341805152e-38
110 245 315 2.341805152e-38
110 249 241 2.341805152e-38
110 261 36 2.341805152e-38
110 271 213 2.341805152e-38
110 274 295 2.341805152e-38
110 279 246 2.341805152e-38
110 284 421 2.341805152e-38
110 290 269 2.341805152e-38
110 296 40 2.341805152e-38
110 300 385 2.341805152e-38
110 305 405 2.341805152e-38
110 310 44 2.341805152e-38
110 313 403 2.341805152e-38
110 318 357 2.341805152e-38
110 322 181 2.341805152e-38
110 331 441 2.341805152e-38
110 340 369 2.341805152e-38
110 347 434 2.341805152e-38
110 353 54 2.341805152e-38
110 358 56 2.341805152e-38
110 362 424 2.341805152e-38
110 365 105 2.341805152e-38
110 370 419 2.341805152e-38
110 379 409 2.341805152e-38
110 391 345 2.341805152e-38
110 397 374 2.341805152e-38
115 99 193 2.341805152e-38
115 99 253 2.341805152e-38
115 103 143 2.341805152e-38
115 116 271 2.341805152e-38
115 128 268 2.341805152e-38
115 141 261 2.341805152e-38
115 157 319 2.341805152e-38
115 163 343 2.341805152e-38
115 169 303 2.341805152e-38
115 177 378 2.341805152e-38
115 187 295 2.341805152e-38
115 197 261 2.341805152e-38
115 206 295 2.341805152e-38
115 216 259 2.341805152e-38
115 226 303 2.341805152e-38
115 234 307 2.341805152e-38
115 241 305 2.341805152e-38
115 249 47 2.341805152e-38
115 260 296 2.341805152e-38
115 268 218 2.341805152e-38
115 273 207 2.341805152e-38
115 279 256 2.341805152e-38
115 283 393 2.341805152e-38
115 288 393 2.341805152e-38
115 294 191 2.341805152e-38
115 299 243 2.341805152e-38
115 304 449 2.341805152e-38
115 310 191 2.341805152e-38
115 316 375 2.341805152e-38
115 322 367 2.341805152e-38
115 327 398 2.341805152e-38
115 333 294 2.341805152e-38
115 337 306 2.341805152e-38
115 339 436 2.341805152e-38
115 349 374 2.341805152e-38
115 353 382 2.341805152e-38
115 355 140 2.341805152e-38
115 359 401 2.341805152e-38
115 363 377 2.341805152e-38
115 367 355 2.341805152e-38
115 374 76 2.341805152e-38
115 382 79 2.341805152e-38
115 389 393 2.341805152e-38
115 395 373 2.341805152e-38
120 99 193 2.341805152e-38
120 100 154 2.341805152e-38
120 104 142 2.341805152e-38
120 117 275 2.341805152e-38
120 131 93 2.341805152e-38
120 145 69 2.341805152e-38
120 155 336 2.341805152e-38
120 164 74 2.341805152e-38
120 171 265 2.341805152e-38
120 180 293 2.341805152e-38
120 191 289 2.341805152e-38
120 203 59 2.341805152e-38
120 214 397 2.341805152e-38
120 226 299 2.341805152e-38
120 238 298 2.341805152e-38
120 250 293 2.341805152e-38
120 262 236 2.341805152e-38
120 269 49 2.341805152e-38
120 273 49 2.341805152e-38
120 279 245 2.341805152e-38
120 284 263 2.341805152e-38
120 290 49 2.341805152e-38
120 296 195 2.341805152e-38
120 301 413 2.341805152e-38
120 306 411 2.341805152e-38
120 313 389 2.341805152e-38
120 319 443 2.341805152e-38
120 325 402 2.341805152e-38
120 330 391 2.341805152e-38
120 335 385 2.341805152e-38
120 339 300 2.341805152e-38
120 341 315 2.341805152e-38
120 347 145 2.341805152e-38
120 350 52 2.341805152e-38
120 354 389 2.341805152e-38
120 359 423 2.341805152e-38
120 366 418 2.341805152e-38
120 374 77 2.341805152e-38
120 381 354 2.341805152e-38
120 387 360 2.341805152e-38
120 394 82 2.341805152e-38
125 99 170 2.341805152e-38
125 101 181 2.341805152e-38
125 101 231 2.341805152e-38
125 106 135 2.341805152e-38
125 119 91 2.341805152e-38
125 133 97 2.341805152e-38
125 151 273 2.341805152e-38
125 157 306 2.341805152e-38
125 165 361 2.341805152e-38
125 174 293 2.341805152e-38
125 184 273 2.341805152e-38
125 194 217 2.341805152e-38
125 201 218 2.341805152e-38
125 212 398 2.341805152e-38
125 223 262 2.341805152e-38
125 235 57 2.341805152e-38
125 247 291 2.341805152e-38
125 258 397 2.341805152e-38
125 265 446 2.341805152e-38
125 271 214 2.341805152e-38
125 275 258 2.341805152e-38
125 281 241 2.341805152e-38
125 287 239 2.341805152e-38
125 293 55 2.341805152e-38
125 298 444 2.341805152e-38
125 304 256 2.341805152e-38
125 308 441 2.341805152e-38
125 315 283 2.341805152e-38
125 322 283 2.341805152e-38
125 328 43 2.341805152e-38
125 333 46 2.341805152e-38
125 337 145 2.341805152e-38
125 339 141 2.341805152e-38
125 341 317 2.341805152e-38
125 343 412 2.341805152e-38
125 347 97 2.341805152e-38
125 349 125 2.341805152e-38
125 354 423 2.341805152e-38
125 362 48 2.341805152e-38
125 369 69 2.341805152e-38
125 376 396 2.341805152e-38
125 381 386 2.341805152e-38
125 389 75 2.341805152e-38
125 406 403 2.341805152e-38
130 99 285 2.341805152e-38
130 103 152 2.341805152e-38
130 103 226 2.341805152e-38
130 108 287 2.341805152e-38
130 124 111 2.341805152e-38
130 141 95 2.341805152e-38
130 151 319 2.341805152e-38
130 158 81 2.341805152e-38
130 166 361 2.341805152e-38
130 175 75 2.341805152e-38
130 185 73 2.341805152e-38
130 196 69 2.341805152e-38
130 206 401 2.341805152e-38
130 218 277 2.341805152e-38
130 227 263 2.341805152e-38
130 238 251 2.341805152e-38
130 248 397 2.341805152e-38
130 259 239 2.341805152e-38
130 268 60 2.341805152e-38
130 274 61 2.341805152e-38
130 282 443 2.341805152e-38
130 288 242 2.341805152e-38
130 294 182 2.341805152e-38
130 300 178 2.341805152e-38
130 305 435 2.341805152e-38
130 310 285 2.341805152e-38
130 317 161 2.341805152e-38
130 322 387 2.341805152e-38
130 327 43 2.341805152e-38
130 331 372 2.341805152e-38
130 335 363 2.341805152e-38
130 339 305 2.341805152e-38
130 340 44 2.341805152e-38
130 344 57 2.341805152e-38
130 357 71 2.341805152e-38
130 362 48 2.341805152e-38
130 369 361 2.341805152e-38
130 377 100 2.341805152e-38
130 390 71 2.341805152e-38
135 101 291 2.341805152e-38
135 105 162 2.341805152e-38
135 105 216 2.341805152e-38
135 108 132 2.341805152e-38
135 125 113 2.341805152e-38
135 142 99 2.341805152e-38
135 150 328 2.341805152e-38
135 158 300 2.341805152e-38
135 166 363 2.341805152e-38
135 180 378 2.341805152e-38
135 197 74 2.341805152e-38
135 215 292 2.341805152e-38
135 227 278 2.341805152e-38
135 233 69 2.341805152e-38
135 242 397 2.341805152e-38
135 252 263 2.341805152e-38
135 263 217 2.341805152e-38
135 271 403 2.341805152e-38
135 280 285 2.341805152e-38
135 287 256 2.341805152e-38
135 291 289 2.341805152e-38
135 296 172 2.341805152e-38
135 300 239 2.341805152e-38
135 304 398 2.341805152e-38
135 307 437 2.341805152e-38
135 312 436 2.341805152e-38
135 319 63 2.341805152e-38
135 325 145 2.341805152e-38
135 329 296 2.341805152e-38
135 333 98 2.341805152e-38
135 337 95 2.341805152e-38
135 337 353 2.341805152e-38
135 344 271 2.341805152e-38
135 356 48 2.341805152e-38
135 367 133 2.341805152e-38
135 375 269 2.341805152e-38
135 385 92 2.341805152e-38
135 396 76 2.341805152e-38
140 105 247 2.341805152e-38
140 107 224 2.341805152e-38
140 109 209 2.341805152e-38
140 113 301 2.341805152e-38
140 127 116 2.341805152e-38
140 139 107 2.341805152e-38
140 148 100 2.341805152e-38
140 160 349 2.341805152e-38
140 174 373 2.341805152e-38
140 191 388 2.341805152e-38
140 207 43 2.341805152e-38
140 219 77 2.341805152e-38
140 228 259 2.341805152e-38
140 233 396 2.341805152e-38
140 245 280 2.341805152e-38
140 253 228 2.341805152e-38
140 262 273 2.341805152e-38
140 271 189 2.341805152e-38
140 279 70 2.341805152e-38
140 286 262 2.341805152e-38
140 290 61 2.341805152e-38
140 295 266 2.341805152e-38
140 303 301 2.341805152e-38
140 311 159 2.341805152e-38
140 317 251 2.341805152e-38
140 325 157 2.341805152e-38
140 331 320 2.341805152e-38
140 336 146 2.341805152e-38
140 347 44 2.341805152e-38
140 353 263 2.341805152e-38
140 364 264 2.341805152e-38
140 373 129 2.341805152e-38
140 386 102 2.341805152e-38
140 399 87 2.341805152e-38
0 271 185 9.147676375e-41
0 291 186 9.147676375e-41
0 300 467 9.147676375e-41
0 307 471 9.147676375e-41
0 314 153 9.147676375e-41
0 325 149 9.147676375e-41
0 333 171 9.147676375e-41
0 343 150 9.147676375e-41
0 347 191 9.147676375e-41
0 352 184 9.147676375e-41
0 356 331 9.147676375e-41
0 362 258 9.147676375e-41
0 368 109 9.147676375e-41
0 373 125 9.147676375e-41
0 378 145 9.147676375e-41
0 385 269 9.147676375e-41
0 393 290 9.147676375e-41
0 399 293 9.147676375e-41
0 405 326 9.147676375e-41
5 293 304 9.147676375e-41
5 302 471 9.147676375e-41
5 310 199 9.147676375e-41
5 322 201 9.147676375e-41
5 334 201 9.147676375e-41
5 341 196 9.147676375e-41
5 351 131 9.147676375e-41
5 362 309 9.147676375e-41
5 368 301 9.147676375e-41
5 372 295 9.147676375e-41
5 377 334 9.147676375e-41
5 384 123 9.147676375e-41
5 392 149 9.147676375e-41
5 398 345 9.147676375e-41
10 280 183 9.147676375e-41
10 300 468 9.147676375e-41
10 307 472 9.147676375e-41
10 317 313 9.147676375e-41
10 333 192 9.147676375e-41
10 343 176 9.147676375e-41
10 368 134 9.147676375e-41
10 375 328 9.147676375e-41
10 381 122 9.147676375e-41
10 388 125 9.147676375e-41
10 394 346 9.147676375e-41
10 401 336 9.147676375e-41
15 290 180 9.147676375e-41
15 298 197 9.147676375e-41
15 305 306 9.147676375e-41
15 316 162 9.147676375e-41
15 327 197 9.147676375e-41
15 337 161 9.147676375e-41
15 375 318 9.147676375e-41
15 383 309 9.147676375e-41
15 399 324 9.147676375e-41
20 294 399 9.147676375e-41
20 303 175 9.147676375e-41
20 320 183 9.147676375e-41
20 331 184 9.147676375e-41
20 359 139 9.147676375e-41
20 372 132 9.147676375e-41
20 381 338 9.147676375e-41
20 389 293 9.147676375e-41
20 397 312 9.147676375e-41
25 307 188 9.147676375e-41
25 318 305 9.147676375e-41
25 331 163 9.147676375e-41
25 350 173 9.147676375e-41
25 358 154 9.147676375e-41
25 368 118 9.147676375e-41
25 375 117 9.147676375e-41
25 383 333 9.147676375e-41
25 388 293 9.147676375e-41
25 394 348 9.147676375e-41
25 400 153 9.147676375e-41
30 296 275 9.147676375e-41
30 302 287 9.147676375e-41
30 312 259 9.147676375e-41
30 317 305 9.147676375e-41
30 323 268 9.147676375e-41
30 332 207 9.147676375e-41
30 345 201 9.147676375e-41
30 357 169 9.147676375e-41
30 366 120 9.147676375e-41
30 373 145 9.147676375e-41
30 376 307 9.147676375e-41
30 383 142 9.147676375e-41
30 388 121 9.147676375e-41
30 395 314 9.147676375e-41
30 405 146 9.147676375e-41
35 213 112 9.147676375e-41
35 311 179 9.147676375e-41
35 321 175 9.147676375e-41
35 332 207 9.147676375e-41
35 343 302 9.147676375e-41
35 359 138 9.147676375e-41
35 363 177 9.147676375e-41
35 371 266 9.147676375e-41
35 377 275 9.147676375e-41
35 384 271 9.147676375e-41
35 390 299 9.147676375e-41
35 396 329 9.147676375e-41
35 401 323 9.147676375e-41
40 194 121 9.147676375e-41
40 214 111 9.147676375e-41
40 233 111 9.147676375e-41
40 292 159 9.147676375e-41
40 314 140 9.147676375e-41
40 325 185 9.147676375e-41
40 334 179 9.147676375e-41
40 345 169 9.147676375e-41
40 374 118 9.147676375e-41
40 382 303 9.147676375e-41
40 387 147 9.147676375e-41
40 394 128 9.147676375e-41
40 407 150 9.147676375e-41
45 191 106 9.147676375e-41
45 213 103 9.147676375e-41
45 231 109 9.147676375e-41
45 317 198 9.147676375e-41
45 336 199 9.147676375e-41
45 380 285 9.147676375e-41
45 400 143 9.147676375e-41
50 185 136 9.147676375e-41
50 201 156 9.147676375e-41
50 224 89 9.147676375e-41
50 238 141 9.147676375e-41
50 251 120 9.147676375e-41
50 285 449 9.147676375e-41
50 377 280 9.147676375e-41
55 153 65 9.147676375e-41
55 171 64 9.147676375e-41
55 176 85 9.147676375e-41
55 187 146 9.147676375e-41
55 196 65 9.147676375e-41
55 214 177 9.147676375e-41
55 233 49 9.147676375e-41
55 242 150 9.147676375e-41
55 250 136 9.147676375e-41
55 256 457 9.147676375e-41
55 262 115 9.147676375e-41
55 268 421 9.147676375e-41
55 279 421 9.147676375e-41
55 296 448 9.147676375e-41
55 389 129 9.147676375e-41
60 144 69 9.147676375e-41
60 160 87 9.147676375e-41
60 173 119 9.147676375e-41
60 188 149 9.147676375e-41
60 202 43 9.147676375e-41
60 225 41 9.147676375e-41
60 234 166 9.147676375e-41
60 243 156 9.147676375e-41
60 249 424 9.147676375e-41
60 257 138 9.147676375e-41
60 260 88 9.147676375e-41
60 264 127 9.147676375e-41
60 271 461 9.147676375e-41
60 286 438 9.147676375e-41
60 297 417 9.147676375e-41
60 305 424 9.147676375e-41
60 320 146 9.147676375e-41
60 371 160 9.147676375e-41
60 392 137 9.147676375e-41
60 403 163 9.147676375e-41
65 218 454 9.147676375e-41
65 228 433 9.147676375e-41
65 239 403 9.147676375e-41
65 254 420 9.147676375e-41
65 272 477 9.147676375e-41
65 289 460 9.147676375e-41
65 309 278 9.147676375e-41
65 314 413 9.147676375e-41
65 322 270 9.147676375e-41
65 363 179 9.147676375e-41
65 375 149 9.147676375e-41
65 388 172 9.147676375e-41
65 408 141 9.147676375e-41
70 231 385 9.147676375e-41
70 254 384 9.147676375e-41
70 360 182 9.147676375e-41
70 375 201 9.147676375e-41
70 389 185 9.147676375e-41
70 408 171 9.147676375e-41
75 220 386 9.147676375e-41
75 241 377 9.147676375e-41
75 261 378 9.147676375e-41
75 303 173 9.147676375e-41
75 362 195 9.147676375e-41
75 375 195 9.147676375e-41
75 388 156 9.147676375e-41
75 406 159 9.147676375e-41
80 413 170 9.147676375e-41
85 114 402 9.147676375e-41
85 254 271 9.147676375e-41
85 380 174 9.147676375e-41
85 388 309 9.147676375e-41
85 399 307 9.147676375e-41
85 409 160 9.147676375e-41
85 414 287 9.147676375e-41
85 423 174 9.147676375e-41
90 114 412 9.147676375e-41
90 131 409 9.147676375e-41
90 153 171 9.147676375e-41
90 256 273 9.147676375e-41
90 381 289 9.147676375e-41
90 391 305 9.147676375e-41
90 398 173 9.147676375e-41
90 404 279 9.147676375e-41
90 413 163 9.147676375e-41
90 419 195 9.147676375e-41
90 424 180 9.147676375e-41
95 95 386 9.147676375e-41
95 113 412 9.147676375e-41
95 131 412 9.147676375e-41
95 403 273 9.147676375e-41
95 411 169 9.147676375e-41
95 418 275 9.147676375e-41
95 423 196 9.147676375e-41
100 88 385 9.147676375e-41
100 100 399 9.147676375e-41
100 125 420 9.147676375e-41
100 215 397 9.147676375e-41
100 233 391 9.147676375e-41
100 244 351 9.147676375e-41
100 255 351 9.147676375e-41
100 401 271 9.147676375e-41
100 412 174 9.147676375e-41
100 419 295 9.147676375e-41
100 423 294 9.147676375e-41
105 89 387 9.147676375e-41
105 122 413 9.147676375e-41
105 214 314 9.147676375e-41
105 226 327 9.147676375e-41
105 233 364 9.147676375e-41
105 239 387 9.147676375e-41
105 247 332 9.147676375e-41
105 255 299 9.147676375e-41
105 266 329 9.147676375e-41
105 380 303 9.147676375e-41
105 406 285 9.147676375e-41
105 417 180 9.147676375e-41
105 423 297 9.147676375e-41
110 85 380 9.147676375e-41
110 117 412 9.147676375e-41
110 173 448 9.147676375e-41
110 214 323 9.147676375e-41
110 235 315 9.147676375e-41
110 258 259 9.147676375e-41
110 271 275 9.147676375e-41
110 293 255 9.147676375e-41
110 422 273 9.147676375e-41
115 120 406 9.147676375e-41
115 134 418 9.147676375e-41
115 152 433 9.147676375e-41
115 178 442 9.147676375e-41
115 199 397 9.147676375e-41
115 216 401 9.147676375e-41
115 221 366 9.147676375e-41
115 225 376 9.147676375e-41
115 231 283 9.147676375e-41
115 245 372 9.147676375e-41
115 261 296 9.147676375e-41
115 269 323 9.147676375e-41
115 332 287 9.147676375e-41
115 357 293 9.147676375e-41
115 392 317 9.147676375e-41
115 426 177 9.147676375e-41
120 117 395 9.147676375e-41
120 150 415 9.147676375e-41
120 171 423 9.147676375e-41
120 221 361 9.147676375e-41
120 227 366 9.147676375e-41
120 231 375 9.147676375e-41
120 245 292 9.147676375e-41
120 257 326 9.147676375e-41
120 373 205 9.147676375e-41
130 228 274 9.147676375e-41
150 224 426 9.147676375e-41
155 324 463 9.147676375e-41
170 307 237 9.147676375e-41
175 132 107 9.147676375e-41
175 141 71 9.147676375e-41
175 147 159 9.147676375e-41
175 159 175 9.147676375e-41
175 181 101 9.147676375e-41
175 189 94 9.147676375e-41
175 197 89 9.147676375e-41
175 202 61 9.147676375e-41
175 208 58 9.147676375e-41
175 213 114 9.147676375e-41
175 220 49 9.147676375e-41
175 229 153 9.147676375e-41
175 253 153 9.147676375e-41
175 274 149 9.147676375e-41
175 289 176 9.147676375e-41
175 300 187 9.147676375e-41
175 317 177 9.147676375e-41
175 337 48 9.147676375e-41
175 354 144 9.147676375e-41
175 372 120 9.147676375e-41
175 388 99 9.147676375e-41
180 111 415 9.147676375e-41
180 124 416 9.147676375e-41
180 131 416 9.147676375e-41
180 143 130 9.147676375e-41
180 151 73 9.147676375e-41
180 167 73 9.147676375e-41
180 175 115 9.147676375e-41
180 185 85 9.147676375e-41
180 192 95 9.147676375e-41
180 197 81 9.147676375e-41
180 202 105 9.147676375e-41
180 207 115 9.147676375e-41
180 215 57 9.147676375e-41
180 235 158 9.147676375e-41
180 253 40 9.147676375e-41
180 259 155 9.147676375e-41
180 265 203 9.147676375e-41
180 277 173 9.147676375e-41
180 298 40 9.147676375e-41
180 318 41 9.147676375e-41
180 340 51 9.147676375e-41
180 358 148 9.147676375e-41
180 370 71 9.147676375e-41
180 386 88 9.147676375e-41
3.684852054 275.8616584 194.2067969 3.573311084e-43
2.268343764 301.3093885 203.3893032 3.573311084e-43
-15.42767964 338.8636549 313.3809064 3.573311084e-43
8.844113424 353.8718802 163.6373979 3.573311084e-43
13.11084328 359.9817483 137.3725205 3.573311084e-43
7.449585684 367.5449319 172.4857167 3.573311084e-43
-21.82516663 374.1366579 353.5106853 3.573311084e-43
11.00406493 388.5195157 150.8728538 3.573311084e-43
-17.23628141 391.0113985 325.4362722 3.573311084e-43
7.583837036 285.2386012 203.7888742 3.573311084e-43
18.80843887 322.5630741 135.0511353 3.573311084e-43
-11.34763466 342.9187809 321.7544089 3.573311084e-43
17.36395534 362.9967586 144.6589712 3.573311084e-43
15.29314516 372.2668704 157.6124521 3.573311084e-43
-16.54164507 375.1926756 354.3963472 3.573311084e-43
-8.348324801 386.2813672 303.9495541 3.573311084e-43
-11.77969277 391.0273004 325.2348822 3.573311084e-43
-4.007290545 342.1976638 309.8992547 3.573311084e-43
-2.481658602 349.963428 300.6018783 3.573311084e-43
23.15868519 365.2141305 142.4050001 3.573311084e-43
-11.92641302 367.5640521 359.2656485 3.573311084e-43
18.50985301 380.4521492 171.3908336 3.573311084e-43
19.51828197 390.267835 165.3242324 3.573311084e-43
-1.535174831 392.9622983 295.4770783 3.573311084e-43
19.50344503 296.1565162 197.3498736 3.573311084e-43
26.98051823 324.2507741 151.6158564 3.573311084e-43
29.48860212 355.747753 136.6468277 3.573311084e-43
-6.783986816 352.5333804 360.7522714 3.573311084e-43
29.98182632 366.5429351 133.7806208 3.573311084e-43
29.1064998 377.0956399 139.3677839 3.573311084e-43
27.89103383 386.5173 147.0379087 3.573311084e-43
0.1698886992 385.8888359 318.3401713 3.573311084e-43
-3.271470434 395.9868957 339.7774029 3.573311084e-43
25.7794097 315.5916221 192.4119797 3.573311084e-43
36.35170788 335.6680515 127.4148348 3.573311084e-43
34.27889948 346.0085886 140.3986965 3.573311084e-43
5.18720539 346.2080724 320.1847097 3.573311084e-43
2.097975098 351.014625 339.3566953 3.573311084e-43
-2.015670007 354.5688944 364.8383277 3.573311084e-43
28.76073547 368.5880362 174.880551 3.573311084e-43
-2.049639949 372.7661246 365.3547993 3.573311084e-43
31.46586521 386.1997957 158.4599022 3.573311084e-43
3.221522405 390.8325291 333.084082 3.573311084e-43
28.08560195 261.5103751 210.7683089 3.573311084e-43
17.43737096 282.1101074 276.9199198 3.573311084e-43
19.98741771 291.1281549 261.3128968 3.573311084e-43
17.06925626 295.9650171 279.4282112 3.573311084e-43
23.55988105 302.4689109 239.4266077 3.573311084e-43
31.0589348 318.7884904 193.358403 3.573311084e-43
40.27666988 331.1294653 136.6019631 3.573311084e-43
32.7256621 342.6409438 183.4600657 3.573311084e-43
31.00298431 348.760399 194.2090621 3.573311084e-43
9.096181532 350.2328887 329.6148835 3.573311084e-43
8.234842632 353.2926163 334.9893817 3.573311084e-43
12.84970487 356.2518278 306.5200198 3.573311084e-43
2.919719178 358.7755686 367.9284741 3.573311084e-43
40.19074591 377.1577535 137.9083326 3.573311084e-43
36.07510257 381.7824482 163.4203456 3.573311084e-43
11.93441371 388.2130388 312.7147965 3.573311084e-43
7.639708605 397.089125 339.4050035 3.573311084e-43
49.17539674 228.9604212 113.407274 3.573311084e-43
50.80016118 275.2918061 104.1469311 3.573311084e-43
42.0376839 294.0840942 158.614397 3.573311084e-43
34.64975204 309.9075836 204.537351 3.573311084e-43
14.77779127 321.377617 327.5365438 3.573311084e-43
45.38512614 334.2960239 138.6050576 3.573311084e-43
15.94130321 339.7870149 320.6563168 3.573311084e-43
14.72783547 348.1382497 328.2960609 3.573311084e-43
9.752851467 354.7522467 359.1521915 3.573311084e-43
8.523397872 371.666884 367.0349811 3.573311084e-43
15.68031394 387.9258441 323.0801188 3.573311084e-43
54.66395709 211.8495182 112.719793 3.573311084e-43
41.75586299 251.3228806 193.1549823 3.573311084e-43
54.72512318 270.7532199 113.3340594 3.573311084e-43
47.86438546 279.1746612 155.8743349 3.573311084e-43
51.43884703 289.4449919 133.9576652 3.573311084e-43
45.94066535 301.3201863 168.1357129 3.573311084e-43
47.63736613 309.1162601 157.7816653 3.573311084e-43
40.95169372 315.4271604 199.2045083 3.573311084e-43
44.17202821 332.0594237 179.5834651 3.573311084e-43
49.29410228 338.3208401 148.0352315 3.573311084e-43
21.89111605 350.598099 317.5887199 3.573311084e-43
23.24567915 358.3335534 309.3480148 3.573311084e-43
24.26409927 362.7971127 303.1295101 3.573311084e-43
25.44959176 369.4318322 295.9150956 3.573311084e-43
53.48689756 384.0364447 122.8944394 3.573311084e-43
52.10236098 392.3573698 131.5908547 3.573311084e-43
48.67498947 394.9624525 152.8154214 3.573311084e-43
18.21474466 394.919459 341.0548045 3.573311084e-43
60.22045732 158.3441548 110.9993688 3.573311084e-43
59.84035323 178.6216163 113.6899442 3.573311084e-43
59.13409732 190.2750561 118.2508167 3.573311084e-43
58.43183787 199.7876452 122.7509278 3.573311084e-43
60.44070286 223.7007179 110.739248 3.573311084e-43
60.39474352 248.3205001 111.4380038 3.573311084e-43
59.49144176 273.8591592 117.4504964 3.573311084e-43
52.44964404 287.6024173 161.1993466 3.573311084e-43
61.66737912 299.9433922 104.4429068 3.573311084e-43
46.42826467 304.7388093 198.6993114 3.573311084e-43
60.7860579 313.7073729 110.1212118 3.573311084e-43
51.00915697 325.8952511 170.7464211 3.573311084e-43
28.70226779 358.3494554 309.1466248 3.573311084e-43
54.67275987 380.0833292 149.0186881 3.573311084e-43
30.37099333 381.1314836 299.2179068 3.573311084e-43
25.738147 387.8060998 327.9606949 3.573311084e-43
27.26377895 395.5718639 318.6633186 3.573311084e-43
66.21622949 144.5354567 107.2330161 3.573311084e-43
66.53638662 156.3707545 105.4538612 3.573311084e-43
63.42317754 174.0224108 124.9904151 3.573311084e-43
62.35080517 198.4603349 132.0291982 3.573311084e-43
71.20642025 221.4449436 77.68990771 3.573311084e-43
65.71223503 231.1792874 111.807194 3.573311084e-43
65.66627569 255.7990696 112.5059498 3.573311084e-43
66.30059526 282.6809409 109.038782 3.573311084e-43
56.01448427 292.6370395 172.7732435 3.573311084e-43
56.34663079 298.0497854 170.8118045 3.573311084e-43
18.6974982 298.8746367 403.4921408 3.573311084e-43
67.77627141 317.2073378 100.5009227 3.573311084e-43
66.56280367 325.5585726 108.1406669 3.573311084e-43
16.93485577 326.4025981 414.8487509 3.573311084e-43
31.07562083 359.9606341 328.0260783 3.573311084e-43
34.97023953 382.0662625 304.3302536 3.573311084e-43
31.36180802 389.9931621 326.763395 3.573311084e-43
69.99609966 126.0510318 117.0818668 3.573311084e-43
73.90670421 139.5932578 93.14299666 3.573311084e-43
76.26370158 160.355674 78.92683238 3.573311084e-43
77.5882912 184.1475081 71.14183756 3.573311084e-43
79.08195144 209.0400771 62.33055219 3.573311084e-43
79.54919863 233.7507882 59.85929423 3.573311084e-43
78.16666028 241.0012881 68.52532889 3.573311084e-43
71.46100555 258.0164415 110.2519787 3.573311084e-43
70.90983262 278.2635934 113.9992254 3.573311084e-43
71.91826158 288.0792791 107.9326241 3.573311084e-43
68.48889184 291.7547871 129.1875715 3.573311084e-43
68.47690245 298.177339 129.3698556 3.573311084e-43
72.73763761 307.498483 103.1961203 3.573311084e-43
72.90071352 311.8104939 102.2609718 3.573311084e-43
69.29228201 319.7373935 124.6941132 3.573311084e-43
22.5725044 321.0966832 413.4387863 3.573311084e-43
39.45037091 355.1396738 309.7093739 3.573311084e-43
36.16809123 371.6905952 330.2722183 3.573311084e-43
75.11454707 123.8654639 118.9330579 3.573311084e-43
72.35146861 137.2960383 136.2347466 3.573311084e-43
82.23349673 160.4625049 75.55542865 3.573311084e-43
83.55608813 185.3247644 67.80081452 3.573311084e-43
70.16875745 206.5099674 150.8895458 3.573311084e-43
86.20326915 233.9788579 52.26120557 3.573311084e-43
70.75911592 256.9411956 148.0907531 3.573311084e-43
63.8983782 265.3626369 190.6310286 3.573311084e-43
81.84262239 278.1789793 79.95397516 3.573311084e-43
25.04177257 271.3274471 430.859967 3.573311084e-43
72.41585206 286.1457756 138.3443192 3.573311084e-43
72.74600035 292.6289468 136.4132608 3.573311084e-43
66.5755327 297.9603508 174.6357094 3.573311084e-43
22.59485477 298.7341698 446.443262 3.573311084e-43
31.81258985 311.0751447 389.6868222 3.573311084e-43
29.74177968 320.3452565 402.6403032 3.573311084e-43
78.4844099 335.4060624 101.6712856 3.573311084e-43
26.97470475 335.9166816 420.0027532 3.573311084e-43
30.2050304 347.1968183 400.2298066 3.573311084e-43
45.39818552 367.0211832 306.6721577 3.573311084e-43
68.46650201 385.0285167 164.41649 3.573311084e-43
45.35022796 392.7113906 307.4012941 3.573311084e-43
44.82303381 400.1134388 310.7839726 3.573311084e-43
83.46731661 130.819182 100.950541 3.573311084e-43
86.34551343 147.3908259 83.44284029 3.573311084e-43
91.954817 167.6587004 49.11954188 3.573311084e-43
91.93683291 177.2925281 49.39296804 3.573311084e-43
89.68496274 191.8844569 63.55502367 3.573311084e-43
73.73159945 212.615015 162.4938235 3.573311084e-43
73.3415042 238.2446031 165.3363024 3.573311084e-43
70.22629689 256.9666847 184.9032369 3.573311084e-43
91.76098851 271.4899553 52.06646826 3.573311084e-43
91.40686144 277.8518879 54.36209484 3.573311084e-43
35.45735936 273.2927546 400.0454918 3.573311084e-43
69.83020695 285.8075487 187.8368579 3.573311084e-43
70.67356177 292.3816489 182.7357858 3.573311084e-43
26.86794915 291.044927 453.4259059 3.573311084e-43
89.63023138 312.8728264 65.93136976 3.573311084e-43
28.02946286 310.5247502 446.5760595 3.573311084e-43
38.95988458 322.0983964 379.2225267 3.573311084e-43
38.94589695 329.5913736 379.4351915 3.573311084e-43
47.31827899 336.4286736 327.8102044 3.573311084e-43
51.92115184 345.810437 299.5231266 3.573311084e-43
34.62721307 351.3125635 406.4899667 3.573311084e-43
53.26172732 361.0388686 291.4950863 3.573311084e-43
51.34999659 376.761842 303.5741801 3.573311084e-43
75.09859198 397.0312648 157.1525889 3.573311084e-43
51.30403726 401.3816241 304.2729359 3.573311084e-43
88.74684171 134.0160503 101.8969643 3.573311084e-43
82.21425405 149.991088 142.5365621 3.573311084e-43
97.914621 173.1176579 45.90004158 3.573311084e-43
79.76333979 179.5386614 158.1806186 3.573311084e-43
99.92548422 195.9603053 33.85798114 3.573311084e-43
99.21723007 208.6841704 38.44923429 3.573311084e-43
76.9423126 224.0115698 176.363347 3.573311084e-43
41.51707495 225.2304467 395.3069573 3.573311084e-43
37.56250929 235.2375775 419.9142025 3.573311084e-43
41.99231506 245.6594565 392.7141766 3.573311084e-43
98.43104488 263.1546225 44.22533412 3.573311084e-43
34.09517314 259.2511664 441.746383 3.573311084e-43
76.33718741 273.160205 180.9308722 3.573311084e-43
80.60391727 279.2700731 154.6659948 3.573311084e-43
98.72722323 287.8350239 42.81074739 3.573311084e-43
97.0085419 291.8136285 53.49898247 3.573311084e-43
96.65241659 299.2459864 55.82498973 3.573311084e-43
50.4518402 297.4849292 341.3085071 3.573311084e-43
50.43785258 304.9779064 341.5211719 3.573311084e-43
32.63470375 308.2482533 451.5972643 3.573311084e-43
93.69029404 327.6322054 74.60867919 3.573311084e-43
34.14235161 325.6478452 442.5733142 3.573311084e-43
55.85610499 335.9197242 308.5583515 3.573311084e-43
88.52026241 347.0609964 106.8860492 3.573311084e-43
37.36268611 342.2801084 422.952271 3.573311084e-43
55.82613151 351.9761039 309.0140618 3.573311084e-43
60.26193198 359.186707 281.7228938 3.573311084e-43
60.59807497 362.4586022 279.7006934 3.573311084e-43
61.09729387 370.0425084 276.7433445 3.573311084e-43
52.00666653 381.2812 333.1114881 3.573311084e-43
58.64238314 401.7309324 292.4481623 3.573311084e-43
91.17414701 106.7257456 119.9561394 3.573311084e-43
88.06293617 123.3069766 139.4623125 3.573311084e-43
96.5724171 148.3718166 87.29712587 3.573311084e-43
83.20107228 160.9936172 170.1428117 3.573311084e-43
104.3816368 181.8788203 39.60166962 3.573311084e-43
102.3128249 190.0785069 52.52476991 3.573311084e-43
79.53069558 202.1037013 193.5177543 3.573311084e-43
103.9615681 223.5647881 42.89985878 3.573311084e-43
103.4283793 234.1781122 46.37367933 3.573311084e-43
43.02509262 232.0422036 419.6216705 3.573311084e-43
81.66666831 249.5964405 181.1177784 3.573311084e-43
104.5739071 262.2213378 39.76687848 3.573311084e-43
44.68582523 259.1059329 409.8144752 3.573311084e-43
46.89773077 265.9225104 396.2600333 3.573311084e-43
47.91215442 272.5269203 390.10229 3.573311084e-43
57.30895127 280.6165036 332.1676562 3.573311084e-43
85.86745652 291.0303438 155.8554635 3.573311084e-43
52.32397611 292.5826271 363.1756902 3.573311084e-43
50.59930008 299.7725076 373.9550674 3.573311084e-43
55.54630884 308.144465 343.5242664 3.573311084e-43
37.57009294 312.4549275 454.6874107 3.573311084e-43
98.623685 332.909305 77.72920629 3.573311084e-43
88.85677522 339.7450567 138.2025121 3.573311084e-43
94.48406288 350.3791033 103.6057875 3.573311084e-43
43.32448834 346.6686406 419.70239 3.573311084e-43
47.40216527 362.3820269 394.7676099 3.573311084e-43
98.34142405 107.0447442 109.188037 3.573311084e-43
91.13055573 119.6872674 153.9631777 3.573311084e-43
87.16599891 135.0465248 178.7223264 3.573311084e-43
87.64123903 155.4755346 176.1295457 3.573311084e-43
85.20830885 175.3892802 191.500176 3.573311084e-43
106.4008628 189.8519315 60.77674976 3.573311084e-43
83.79379879 199.766585 200.6523016 3.573311084e-43
110.7927022 220.6118914 34.15395683 3.573311084e-43
46.28975804 214.537275 432.6709155 3.573311084e-43
84.75826665 233.1316276 195.2540754 3.573311084e-43
44.7081756 236.7434195 442.818951 3.573311084e-43
110.5536934 256.9760423 36.24357133 3.573311084e-43
57.33729634 255.0427142 365.08099 3.573311084e-43
54.58820549 260.9803115 382.1700138 3.573311084e-43
110.5137288 278.3845485 36.85118502 3.573311084e-43
41.55700012 274.7331567 462.9327379 3.573311084e-43
41.19488012 285.3767905 465.3498872 3.573311084e-43
108.402954 309.0631665 50.41227967 3.573311084e-43
107.6966981 320.7166062 54.97315214 3.573311084e-43
92.44959069 329.7937246 149.3510795 3.573311084e-43
58.21983669 332.2951945 360.9283718 3.573311084e-43
44.17620589 338.3732046 447.8184585 3.573311084e-43
97.36462774 355.2924869 119.4063695 3.573311084e-43
49.96457123 354.3896874 412.3169661 3.573311084e-43
65.68691873 365.7415789 315.346258 3.573311084e-43
64.97866458 378.465444 319.9375112 3.573311084e-43
70.25582163 393.3205725 287.5756518 3.573311084e-43
69.20143334 408.1246689 294.3410088 3.573311084e-43
56.18814184 218.5525042 405.0872155 3.573311084e-43
62.84384077 228.2979835 364.1200828 3.573311084e-43
51.88144734 233.8511422 431.9597066 3.573311084e-43
57.32567676 250.8774311 398.6019374 3.573311084e-43
59.02037932 259.7439302 388.2782705 3.573311084e-43
60.20787004 265.3082244 381.0334753 3.573311084e-43
59.84575004 275.9518581 383.4506246 3.573311084e-43
62.71795216 295.734778 366.0340659 3.573311084e-43
64.73281185 316.4365748 353.9312441 3.573311084e-43
64.85792136 341.0866666 353.5733286 3.573311084e-43
64.14167428 358.0922329 358.2861045 3.573311084e-43
59.33576089 365.8069648 388.1159445 3.573311084e-43
74.48695313 408.1102612 295.19629 3.573311084e-43
67.25803051 236.69543 370.5017657 3.573311084e-43
68.25447007 252.9336676 364.6174485 3.573311084e-43
58.66462383 256.588453 423.9429411 3.573311084e-43
52.33108026 257.6078461 463.1005381 3.573311084e-43
66.51780465 266.5461 375.5791098 3.573311084e-43
66.48383471 284.7433302 376.0955814 3.573311084e-43
51.39980325 298.1324595 469.5383603 3.573311084e-43
71.71703066 323.1478156 344.4020971 3.573311084e-43
54.22604603 342.5351615 452.8205574 3.573311084e-43
69.41720292 363.4299517 359.2932891 3.573311084e-43
63.75994178 368.8522847 394.345724 3.573311084e-43
77.88671922 409.9032979 307.7357162 3.573311084e-43
71.52113372 234.3583137 377.6363129 3.573311084e-43
73.02078865 256.0396069 368.7338855 3.573311084e-43
64.46335015 256.6649743 421.6282086 3.573311084e-43
68.04380641 263.7240291 399.6203968 3.573311084e-43
56.05499994 269.0953299 473.800048 3.573311084e-43
54.14926391 281.6070273 485.7879997 3.573311084e-43
55.33275817 289.3121721 478.6039659 3.573311084e-43
55.48584292 298.9763095 477.8207208 3.573311084e-43
56.99149255 317.4463268 468.8271513 3.573311084e-43
59.17542284 339.2488586 455.698039 3.573311084e-43
61.53242021 360.0112747 441.4818747 3.573311084e-43
66.13329482 370.4634634 413.2251775 3.573311084e-43
102.8951115 386.6138687 186.3142884 3.573311084e-43
107.1438573 402.3575646 160.3228371 3.573311084e-43
87.62602357 407.4656655 281.0264033 3.573311084e-43
102.4930269 418.6660087 189.3390514 3.573311084e-43
84.86694156 418.7553893 298.2673305 3.573311084e-43
99.17426875 77.69005623 237.6239023 3.573311084e-43
65.31306947 249.4399636 449.7746578 3.573311084e-43
61.36449851 256.2358185 474.290761 3.573311084e-43
72.45200145 275.3327515 406.0932217 3.573311084e-43
74.30778169 289.5816868 394.864787 3.573311084e-43
60.26614912 294.5892716 481.724493 3.573311084e-43
83.84967036 311.6171088 336.2684309 3.573311084e-43
62.77023655 328.2271012 466.8162257 3.573311084e-43
65.46937159 349.0501366 450.4867189 3.573311084e-43
80.15131842 367.7131473 360.0687031 3.573311084e-43
70.73254102 371.3982424 418.3375244 3.573311084e-43
110.4105209 383.7822107 173.3417015 3.573311084e-43
83.71578883 383.3356046 338.3039367 3.573311084e-43
88.13360521 400.1800354 311.2861949 3.573311084e-43
91.71206324 408.3095155 289.3087638 3.573311084e-43
110.5136499 420.2069809 173.3179735 3.573311084e-43
88.78391063 418.4985043 307.5759816 3.573311084e-43
114.2426842 62.27649441 177.7628322 3.573311084e-43
118.0022022 65.08415762 154.5768264 3.573311084e-43
109.7789085 70.05184565 205.4793298 3.573311084e-43
108.0522342 78.31215149 216.2890876 3.573311084e-43
126.0004748 88.98764327 105.5512728 3.573311084e-43
128.0373151 97.9147617 93.11426344 3.573311084e-43
131.5957908 116.7484949 71.44063915 3.573311084e-43
133.2825004 129.8966952 61.23849502 3.573311084e-43
134.2809382 145.0645075 55.3237972 3.573311084e-43
109.7881205 156.7866053 206.8834939 3.573311084e-43
136.9540963 179.803072 39.38923935 3.573311084e-43
110.7685742 181.5882454 201.2422223 3.573311084e-43
114.0028963 190.7275315 181.4085143 3.573311084e-43
111.4208779 198.836289 197.5016283 3.573311084e-43
137.2422817 208.7651747 38.09617536 3.573311084e-43
104.3910696 206.1569953 241.0681944 3.573311084e-43
137.0472341 221.5799687 39.5174148 3.573311084e-43
105.2084474 226.6466245 236.3620712 3.573311084e-43
106.8991534 237.6539742 226.0991657 3.573311084e-43
76.26983803 236.5102458 415.3648394 3.573311084e-43
69.40510385 247.0725377 457.9658763 3.573311084e-43
72.63742773 257.282249 438.162549 3.573311084e-43
136.2530559 280.3321221 45.41503738 3.573311084e-43
81.8351805 280.327477 381.709916 3.573311084e-43
77.20633064 284.8612427 410.3919428 3.573311084e-43
66.76114019 288.3644798 475.0007915 3.573311084e-43
84.02710372 297.8483076 368.4592809 3.573311084e-43
84.01911079 302.1300088 368.5808036 3.573311084e-43
79.39425739 304.5229238 397.202069 3.573311084e-43
67.23837854 307.7230643 472.3776301 3.573311084e-43
114.431398 327.8632097 181.070557 3.573311084e-43
68.05375811 329.2831188 467.7018876 3.573311084e-43
119.1893539 345.8386852 151.9698534 3.573311084e-43
123.6291508 350.9084377 124.617924 3.573311084e-43
71.42917559 354.5090942 447.2672186 3.573311084e-43
73.80016058 367.7785332 432.8383896 3.573311084e-43
82.16654792 377.8271091 381.3045446 3.573311084e-43
117.821512 59.81813949 189.1240644 3.573311084e-43
110.4615554 60.6556746 234.6216888 3.573311084e-43
103.6128071 62.65456401 276.9796802 3.573311084e-43
131.9882541 79.46064647 101.9064429 3.573311084e-43
134.8804385 88.53931321 84.18607738 3.573311084e-43
108.50986 97.78715412 247.3083963 3.573311084e-43
136.8733177 121.0157884 72.4174431 3.573311084e-43
109.9815397 134.4544016 238.8312985 3.573311084e-43
111.4911858 150.7835682 229.7769677 3.573311084e-43
117.1124788 164.6288908 195.2713851 3.573311084e-43
75.18862341 163.6255752 454.3381216 3.573311084e-43
142.9178967 183.1211789 36.10897767 3.573311084e-43
78.24588199 175.9458275 435.6522269 3.573311084e-43
81.14605936 180.742793 417.8103387 3.573311084e-43
80.96300112 187.1350352 419.049294 3.573311084e-43
111.2242018 202.1336734 232.2919117 3.573311084e-43
78.36299857 204.8776205 435.4158342 3.573311084e-43
76.97446553 215.3393963 444.1730109 3.573311084e-43
78.83024576 229.5883316 432.9445762 3.573311084e-43
87.36770194 239.6672173 380.35406 3.573311084e-43
141.5825368 256.7683576 45.60194353 3.573311084e-43
71.43232274 250.7639476 479.0194337 3.573311084e-43
85.44797829 259.6718918 392.5546766 3.573311084e-43
71.5734181 266.8506369 478.4184727 3.573311084e-43
79.93381075 280.1104888 426.9757697 3.573311084e-43
87.10471444 288.8764718 382.8082427 3.573311084e-43
117.7160458 299.654028 193.8159952 3.573311084e-43
138.2323173 309.7137395 67.1977312 3.573311084e-43
83.4822953 304.2963485 405.4540489 3.573311084e-43
84.32964658 308.7295981 400.2922154 3.573311084e-43
85.51913554 313.223467 393.0170395 3.573311084e-43
135.4612459 327.4260151 84.62094258 3.573311084e-43
95.75529074 330.0280011 330.0420951 3.573311084e-43
122.4300405 341.1788603 165.3836666 3.573311084e-43
124.4748737 345.8242775 152.8251346 3.573311084e-43
136.7858355 351.2178492 76.83594776 3.573311084e-43
76.37655417 352.2932166 450.175081 3.573311084e-43
78.74753916 365.5626555 435.7462519 3.573311084e-43
85.5783034 373.1975939 393.6616866 3.573311084e-43
126.6994775 60.44023475 167.7892497 3.573311084e-43
114.3825209 58.25793901 243.8695785 3.573311084e-43
118.8263143 61.18684087 216.4568878 3.573311084e-43
134.2005295 75.68938894 121.6906643 3.573311084e-43
108.5222193 80.77676727 280.4647755 3.573311084e-43
141.5105303 101.6124866 76.95255693 3.573311084e-43
143.3523229 123.354399 65.93678704 3.573311084e-43
99.54071557 125.2289531 336.7180491 3.573311084e-43
100.5551392 131.8333629 330.5603059 3.573311084e-43
101.734637 141.6793583 323.4370334 3.573311084e-43
144.8220043 161.0920718 57.49006988 3.573311084e-43
118.8035547 165.0484055 218.347143 3.573311084e-43
145.1421615 172.9273695 55.71091494 3.573311084e-43
110.9223986 170.0767129 267.1363038 3.573311084e-43
110.2201392 179.589302 271.6364149 3.573311084e-43
109.8640139 187.0216598 273.9624222 3.573311084e-43
145.7744828 200.8796662 52.2741278 3.573311084e-43
84.51984842 196.4513587 430.7447137 3.573311084e-43
111.5327394 209.8036879 264.0337042 3.573311084e-43
99.89206531 212.0243321 336.0088709 3.573311084e-43
112.5431666 218.5489484 257.9367223 3.573311084e-43
147.5883002 237.607533 41.68368749 3.573311084e-43
117.289133 242.9469758 229.0183028 3.573311084e-43
103.2554934 243.6728593 315.756486 3.573311084e-43
111.6278754 250.5101594 264.131499 3.573311084e-43
81.68083715 250.5580949 449.2008684 3.573311084e-43
107.6713115 261.5877155 288.7691249 3.573311084e-43
146.8340867 274.9511802 46.97369637 3.573311084e-43
87.80734371 268.7760477 411.6467949 3.573311084e-43
84.37597573 273.521981 432.932123 3.573311084e-43
146.1218361 289.8158959 51.62571089 3.573311084e-43
84.70212756 282.1460028 431.061826 3.573311084e-43
92.56130307 288.8923738 382.6068527 3.573311084e-43
122.6614261 298.5085757 196.7542382 3.573311084e-43
78.16554344 300.2618911 471.7621852 3.573311084e-43
90.46451588 312.0780147 395.9552825 3.573311084e-43
79.33105361 317.6008637 464.8515775 3.573311084e-43
144.3252237 335.5410875 63.49879266 3.573311084e-43
143.9730949 340.8325947 65.76403855 3.573311084e-43
81.01176854 333.96034 454.7405755 3.573311084e-43
135.576734 346.8403984 117.7535938 3.573311084e-43
81.85112689 342.6752908 449.7002648 3.573311084e-43
83.54383121 352.6122152 439.4069786 3.573311084e-43
94.46825824 367.3971373 372.1445878 3.573311084e-43
89.49527246 372.940709 402.9703377 3.573311084e-43
126.3397255 59.4256082 203.5146816 3.573311084e-43
116.0755951 57.60702842 266.9149557 3.573311084e-43
134.8851746 65.22279258 150.8026426 3.573311084e-43
112.962386 75.25868474 286.4515095 3.573311084e-43
113.4516137 88.19471743 283.646064 3.573311084e-43
114.6231186 102.3224141 276.6443143 3.573311084e-43
104.6691541 117.6912586 338.4173368 3.573311084e-43
100.5515126 123.3863785 363.9597305 3.573311084e-43
107.3822768 131.0213169 321.8751653 3.573311084e-43
94.5361279 137.3114946 401.3685533 3.573311084e-43
108.7148594 150.5314498 313.9686477 3.573311084e-43
114.5112176 162.2662314 278.3456326 3.573311084e-43
108.676893 170.8695306 314.5458807 3.573311084e-43
114.8153889 182.6649316 276.8095231 3.573311084e-43
107.2683776 192.0355595 323.6068643 3.573311084e-43
106.5681164 200.4777233 328.0765947 3.573311084e-43
106.8962664 208.0313198 326.175917 3.573311084e-43
151.0160415 224.4146154 53.79778406 3.573311084e-43
108.3979196 228.6421877 317.2431089 3.573311084e-43
121.7253033 239.5697438 235.0657981 3.573311084e-43
123.5970694 245.2552767 223.594318 3.573311084e-43
115.2027068 250.1926551 275.5534925 3.573311084e-43
91.75828272 250.3219325 420.4389744 3.573311084e-43
91.74829156 255.674059 420.5908778 3.573311084e-43
126.292208 268.2191628 207.3255726 3.573311084e-43
117.3866371 271.9951869 262.4243802 3.573311084e-43
82.13646476 271.1035228 480.2505578 3.573311084e-43
126.2602363 285.3459677 207.8116635 3.573311084e-43
94.7715802 286.1915416 402.4214547 3.573311084e-43
96.12814153 292.8565707 394.150369 3.573311084e-43
90.81501631 297.2690977 427.0590806 3.573311084e-43
108.5941864 306.8438545 317.3475564 3.573311084e-43
106.5333673 310.7618398 330.1491339 3.573311084e-43
84.29042158 308.9624343 467.5771558 3.573311084e-43
94.87670739 321.5458864 402.3673461 3.573311084e-43
93.50016373 325.5851104 410.9422387 3.573311084e-43
134.8948267 335.0608994 155.2885614 3.573311084e-43
90.23786637 331.4317786 431.2012762 3.573311084e-43
94.33552562 336.4409118 405.9626894 3.573311084e-43
98.09104719 341.3894256 382.8374449 3.573311084e-43
145.8052661 357.3387988 88.23883539 3.573311084e-43
145.2760738 365.8112722 91.65189457 3.573311084e-43
91.54647014 363.7870152 423.6593269 3.573311084e-43
94.95585756 370.8157603 402.7081863 3.573311084e-43
131.6252453 59.41120053 204.3699628 3.573311084e-43
138.2949319 61.66370269 163.1901654 3.573311084e-43
140.339765 66.30911989 150.6316333 3.573311084e-43
117.5616322 76.19346372 291.5638563 3.573311084e-43
148.668186 96.69577672 99.6750213 3.573311084e-43
152.7458629 112.409163 74.74024126 3.573311084e-43
107.0505001 115.020736 357.1752676 3.573311084e-43
151.8525523 132.5956955 80.60083043 3.573311084e-43
119.1644161 134.299527 282.6377009 3.573311084e-43
114.3565045 143.0846843 312.4979217 3.573311084e-43
115.0187993 154.9806013 308.6054243 3.573311084e-43
154.3406539 174.7969275 65.9356086 3.573311084e-43
96.49740514 176.3269398 423.4246733 3.573311084e-43
113.2381728 192.1423905 320.2354605 3.573311084e-43
113.3852628 205.0178039 319.5433575 3.573311084e-43
114.2166282 218.0144559 314.6245696 3.573311084e-43
123.9435734 232.5872104 254.7588774 3.573311084e-43
155.919459 245.7480945 57.37402143 3.573311084e-43
155.911466 250.0297958 57.49554416 3.573311084e-43
122.3699839 250.5116537 264.7853902 3.573311084e-43
119.2807536 255.3182063 283.9573758 3.573311084e-43
155.8774961 268.227026 58.0120158 3.573311084e-43
130.889456 270.2243671 212.4683001 3.573311084e-43
93.58645752 268.9689871 442.9745326 3.573311084e-43
93.91860404 274.381733 441.0130935 3.573311084e-43
97.66813092 282.5415227 417.9789912 3.573311084e-43
88.41842413 287.3273528 475.2215219 3.573311084e-43
95.42025721 294.9926008 432.0802854 3.573311084e-43
97.29202329 300.6781336 420.6088053 3.573311084e-43
98.30844518 306.2121182 414.4206813 3.573311084e-43
112.8413037 313.0701408 324.7251491 3.573311084e-43
110.2712746 314.7563464 340.635979 3.573311084e-43
139.3409882 326.331541 161.1841533 3.573311084e-43
155.2443957 332.3616156 63.00487056 3.573311084e-43
97.58620341 326.4289604 419.2245992 3.573311084e-43
91.75987167 330.7505584 455.3033246 3.573311084e-43
92.60122825 338.3950839 450.2326332 3.573311084e-43
150.9197171 357.2940814 90.15078784 3.573311084e-43
103.5196606 356.3912819 383.0613845 3.573311084e-43
102.4812581 362.6319758 389.583696 3.573311084e-43
150.0244082 378.5510393 96.0417577 3.573311084e-43
140.8453484 60.09391511 180.9218056 3.573311084e-43
138.9595947 61.90135943 192.6059506 3.573311084e-43
130.4061527 60.38587628 245.4395123 3.573311084e-43
146.8187703 68.64773048 144.1509772 3.573311084e-43
154.3198222 83.89688467 98.05239183 3.573311084e-43
153.2654339 98.70098101 104.8177488 3.573311084e-43
123.1213498 112.6341359 291.3387383 3.573311084e-43
117.4640887 118.0564689 326.3911732 3.573311084e-43
108.0393166 124.9528399 384.7511365 3.573311084e-43
119.6540136 136.6477247 313.1709188 3.573311084e-43
123.0554081 147.9581711 292.3413009 3.573311084e-43
132.6152809 160.3597653 233.4715187 3.573311084e-43
132.4302244 167.8224328 234.7408547 3.573311084e-43
101.6158526 174.1413719 425.2758644 3.573311084e-43
124.8592344 190.0381644 281.902764 3.573311084e-43
159.9043679 209.0967491 65.64972924 3.573311084e-43
119.8502804 214.8493916 313.2753663 3.573311084e-43
101.6950027 223.4112457 425.6167046 3.573311084e-43
93.29864192 229.4190494 477.6062599 3.573311084e-43
132.9746236 242.8734431 232.6408176 3.573311084e-43
125.4396017 245.8215191 279.2558747 3.573311084e-43
128.3357826 252.7593353 261.4747478 3.573311084e-43
128.6659309 259.2425065 259.5436895 3.573311084e-43
