# .PCD v0.7 - Point Cloud Data file format
VERSION 0.7
FIELDS x y z rgb
SIZE 4 4 4 4
TYPE F F F F
COUNT 1 1 1 1
WIDTH 491
HEIGHT 1
VIEWPOINT 0 0 0 1 0 0 0
POINTS 491
DATA ascii
3.034139106 305.2722792 128.5256387 3.573311084e-43
-2.766429521 317.0863451 140.5745627 3.573311084e-43
-9.606425684 338.5542862 146.9864304 3.573311084e-43
-21.44756852 372.9179877 160.9835543 3.573311084e-43
7.803341096 295.2144346 142.0362413 3.573311084e-43
-0.08470652409 310.3485635 159.3848399 3.573311084e-43
-8.185992997 328.8809333 174.1104751 3.573311084e-43
-12.11232148 340.7731769 178.2367611 3.573311084e-43
-15.05275589 357.6862033 173.0445821 3.573311084e-43
21.17540052 285.1222988 119.5881891 3.573311084e-43
15.19698369 308.9849639 119.9181233 3.573311084e-43
8.263751467 328.4833608 128.7573897 3.573311084e-43
-0.1750886095 347.7879127 144.0965929 3.573311084e-43
-8.06313623 362.9220416 161.4451915 3.573311084e-43
-15.737945 374.6579297 181.4167535 3.573311084e-43
29.08013296 278.0782032 116.8623864 3.573311084e-43
23.8700594 302.3660482 113.5377856 3.573311084e-43
16.16848391 321.4392652 126.0315869 3.573311084e-43
7.31268501 308.2275952 176.7501984 3.573311084e-43
1.102886522 358.8135173 150.4056213 3.573311084e-43
-8.09046598 346.3740293 201.7378009 3.573311084e-43
-13.32730627 377.9992032 190.9354395 3.573311084e-43
36.94947476 262.3837493 123.2326101 3.573311084e-43
30.45565612 299.0671955 112.4571225 3.573311084e-43
22.44760571 319.5691094 124.755359 3.573311084e-43
14.83926628 340.6118705 134.8217617 3.573311084e-43
5.028651985 323.0359324 194.0497053 3.573311084e-43
-1.394385355 377.0200953 165.0821649 3.573311084e-43
-9.131351499 387.4429541 186.6719926 3.573311084e-43
-12.73306226 374.5814847 215.0453912 3.573311084e-43
42.77535213 274.647404 109.2326947 3.573311084e-43
35.22917007 297.0031945 117.6808316 3.573311084e-43
27.7140667 320.0154997 125.3198356 3.573311084e-43
18.20992732 301.0108648 184.743344 3.573311084e-43
10.10864085 319.5432346 199.4689791 3.573311084e-43
3.996390388 380.0925445 162.4101099 3.573311084e-43
-4.047050671 391.9440999 183.8043728 3.573311084e-43
-8.319556682 388.6208383 205.1180142 3.573311084e-43
52.30138325 254.435525 113.3442106 3.573311084e-43
46.32296642 278.2981901 113.6741448 3.573311084e-43
37.71579702 270.3386375 157.9196932 3.573311084e-43
29.8277494 285.4727664 175.2682918 3.573311084e-43
24.08413123 345.9064089 136.7867215 3.573311084e-43
16.47579179 366.94917 146.8531241 3.573311084e-43
8.312347946 384.1685104 163.197025 3.573311084e-43
-0.9785525789 361.7656347 225.2434968 3.573311084e-43
-5.691367138 396.5577147 208.97277 3.573311084e-43
61.18338585 236.4245248 117.8737299 3.573311084e-43
56.40410195 261.9097318 111.5081624 3.573311084e-43
49.27146172 253.4875097 150.0629067 3.573311084e-43
43.12382061 305.3864612 122.1000639 3.573311084e-43
33.49536648 283.7557676 184.7601039 3.573311084e-43
25.66947623 300.2029259 200.4904367 3.573311084e-43
20.11664215 372.5695001 148.8671755 3.573311084e-43
10.05308639 341.7476008 222.8550758 3.573311084e-43
2.475825648 363.4468767 232.1123456 3.573311084e-43
-2.907784157 407.7771644 208.7818614 3.573311084e-43
-8.072948187 401.4026642 236.9865692 3.573311084e-43
64.42883719 249.4978513 113.8327217 3.573311084e-43
58.51257773 274.6735457 112.5443901 3.573311084e-43
52.44092484 296.5666667 115.3017229 3.573311084e-43
42.75031333 273.6229437 179.5800286 3.573311084e-43
35.19981932 287.9848905 196.315059 3.573311084e-43
29.80237867 363.6340382 140.6461335 3.573311084e-43
19.36587866 324.9339627 224.3436283 3.573311084e-43
11.54430038 349.3749646 231.7870676 3.573311084e-43
6.044999743 407.0668809 195.1193278 3.573311084e-43
-1.110095257 413.9758315 217.9094179 3.573311084e-43
-5.111517002 400.5735148 248.5146504 3.573311084e-43
71.12581277 224.8435265 134.3762077 3.573311084e-43
65.21817724 266.0069082 116.514089 3.573311084e-43
57.74367144 250.3630245 163.969295 3.573311084e-43
52.39976424 311.3375143 123.2558909 3.573311084e-43
45.31545054 335.5471815 127.8539281 3.573311084e-43
34.75463578 294.2210472 214.7879545 3.573311084e-43
29.82337545 379.7179152 146.9820357 3.573311084e-43
21.59777423 395.6242262 164.9442024 3.573311084e-43
13.92296546 407.3601143 184.9157643 3.573311084e-43
5.120700013 379.4737863 250.5898972 3.573311084e-43
0.501121516 416.2354103 231.8917717 3.573311084e-43
82.86363764 203.9376432 129.9515176 3.573311084e-43
79.05731194 210.4621019 139.1281657 3.573311084e-43
75.08607392 253.0166908 111.7251432 3.573311084e-43
67.57097055 276.028996 119.3641472 3.573311084e-43
62.69845059 299.5446588 115.4259783 3.573311084e-43
52.51058009 266.0967008 192.6504101 3.573311084e-43
44.83577132 277.8325889 212.6219721 3.573311084e-43
37.00988107 294.2797472 228.3523049 3.573311084e-43
32.11401139 388.4269736 151.4503597 3.573311084e-43
24.56351737 402.7889204 168.1853901 3.573311084e-43
14.46457097 363.3166628 251.2693168 3.573311084e-43
9.364981313 421.5494264 212.3697432 3.573311084e-43
3.311471224 420.1175312 239.1786238 3.573311084e-43
88.95628731 198.1283992 133.530087 3.573311084e-43
84.86594147 190.750382 158.2758246 3.573311084e-43
82.99601329 198.6660479 157.911569 3.573311084e-43
77.32838333 229.0938599 150.1501743 3.573311084e-43
71.79369205 278.1354178 122.578461 3.573311084e-43
65.5088003 303.4267797 122.7128304 3.573311084e-43
59.16175118 327.4051121 124.4654656 3.573311084e-43
52.38391239 350.1860825 129.2590675 3.573311084e-43
41.22829061 288.3923254 239.8535122 3.573311084e-43
36.76752255 391.7307575 151.6237067 3.573311084e-43
26.384556 338.356024 250.2767229 3.573311084e-43
21.57329845 418.4851071 187.5211662 3.573311084e-43
14.41820345 425.3940576 210.3112563 3.573311084e-43
8.333614677 423.3056476 237.9292698 3.573311084e-43
94.7692288 186.410523 144.3908523 3.573311084e-43
93.43626223 221.4746259 113.6975506 3.573311084e-43
89.70161279 189.9994104 161.8812679 3.573311084e-43
87.10735591 222.127942 139.5017336 3.573311084e-43
80.60060139 234.8298573 153.5869267 3.573311084e-43
76.20288567 284.1809279 120.9379775 3.573311084e-43
67.61817104 260.8902027 180.9481802 3.573311084e-43
63.81526234 330.708896 124.6388126 3.573311084e-43
57.80576682 353.9150463 125.7778797 3.573311084e-43
49.25302584 275.9804449 242.1780715 3.573311084e-43
41.18281806 295.1693294 256.0945738 3.573311084e-43
33.60986927 324.8624489 257.06495 3.573311084e-43
29.48234286 419.4348552 176.5084699 3.573311084e-43
22.38940523 427.6568351 197.6802942 3.573311084e-43
15.78510269 430.3953627 222.4797796 3.573311084e-43
9.629732613 411.006236 268.289846 3.573311084e-43
100.0710804 195.5072717 135.8593024 3.573311084e-43
96.57122966 200.6030336 145.2315153 3.573311084e-43
93.7154074 203.4979168 154.1857247 3.573311084e-43
90.17927101 255.2437113 115.4548419 3.573311084e-43
83.86419553 224.5781675 173.5974663 3.573311084e-43
77.35744101 237.2800829 187.6826595 3.573311084e-43
70.85499845 257.9758418 193.4809591 3.573311084e-43
66.82680998 251.9108541 216.6084309 3.573311084e-43
64.06853574 264.769125 214.8483481 3.573311084e-43
59.18739186 272.2971005 227.4839664 3.573311084e-43
59.30129277 369.5362537 126.4229778 3.573311084e-43
51.5375599 387.2964414 140.5350449 3.573311084e-43
43.37411605 404.5157818 156.8789458 3.573311084e-43
35.48606843 419.6499107 174.2275444 3.573311084e-43
27.74910229 430.0727695 195.8173721 3.573311084e-43
20.96263958 436.8660526 217.1847612 3.573311084e-43
15.18452572 433.3489459 244.9983394 3.573311084e-43
106.869916 188.8101782 137.4016027 3.573311084e-43
106.1412753 205.0292003 123.6732176 3.573311084e-43
99.03540184 189.2696492 169.7057226 3.573311084e-43
97.36488167 225.1059342 139.625989 3.573311084e-43
94.05150302 234.1407843 144.1434046 3.573311084e-43
89.06849915 223.7115285 175.7802086 3.573311084e-43
83.05469167 238.9238352 185.2061692 3.573311084e-43
77.28951369 259.3882594 188.1590668 3.573311084e-43
73.18444204 338.6294931 123.3672409 3.573311084e-43
64.88895448 281.9346965 216.7205826 3.573311084e-43
62.46392188 286.0269417 222.6338253 3.573311084e-43
59.16868603 271.7367755 251.2027887 3.573311084e-43
55.33559361 285.5985632 252.9016761 3.573311084e-43
52.41582405 397.7811987 149.0759071 3.573311084e-43
44.52777643 412.9153277 166.4245057 3.573311084e-43
36.36433258 430.1346681 182.7684066 3.573311084e-43
29.24031627 437.7001333 204.7493638 3.573311084e-43
22.3606175 442.5238723 228.5441516 3.573311084e-43
17.56408576 436.0337047 255.3261583 3.573311084e-43
112.2874585 184.5452983 142.2073084 3.573311084e-43
109.2140854 182.8445787 156.825448 3.573311084e-43
106.570607 237.6416119 111.2034988 3.573311084e-43
102.5691853 224.2392952 141.8087313 3.573311084e-43
99.93091384 231.7297811 145.0990106 3.573311084e-43
96.85233384 277.3356087 110.8049217 3.573311084e-43
90.47420603 300.6574264 113.3666898 3.573311084e-43
82.15626371 259.2938025 190.9553772 3.573311084e-43
79.55679991 338.7288813 119.6636144 3.573311084e-43
72.42074267 267.0124247 223.7043744 3.573311084e-43
72.81003981 362.1663664 123.6480835 3.573311084e-43
66.25585371 286.9360016 228.8891059 3.573311084e-43
64.22011825 386.1821885 134.7460576 3.573311084e-43
52.59400419 306.5468674 265.7643891 3.573311084e-43
45.54076918 331.4130493 269.5532934 3.573311084e-43
41.2310826 430.0402111 185.564717 3.573311084e-43
30.72380129 374.0394189 287.4542648 3.573311084e-43
26.64549637 445.9433236 230.1401996 3.573311084e-43
22.15112758 430.0306155 265.4046647 3.573311084e-43
119.5610983 203.6836125 115.0388283 3.573311084e-43
117.4563714 175.028301 153.4860771 3.573311084e-43
114.5642636 224.5732167 114.337191 3.573311084e-43
110.0292972 247.3166975 109.785454 3.573311084e-43
104.6561013 197.0338908 184.2794268 3.573311084e-43
102.0489085 205.1808915 186.7605732 3.573311084e-43
100.5294698 236.3059062 160.9220688 3.573311084e-43
97.1841175 299.9846325 109.0494951 3.573311084e-43
88.92402059 251.9401943 193.3068104 3.573311084e-43
86.4679093 255.3759248 200.0291859 3.573311084e-43
83.48777229 255.6447492 212.2199269 3.573311084e-43
83.56628255 344.233544 120.2549648 3.573311084e-43
77.51366742 287.5012578 204.2629675 3.573311084e-43
74.50676368 295.1074112 208.9759478 3.573311084e-43
75.16283312 372.1884542 126.4981417 3.573311084e-43
68.72433786 283.5964608 245.0764197 3.573311084e-43
61.38708269 294.5601668 264.4344135 3.573311084e-43
53.80982195 316.2594427 273.6916832 3.573311084e-43
47.09414054 340.3534425 276.8670194 3.573311084e-43
39.39256504 359.4266595 289.3608207 3.573311084e-43
35.56720158 444.5765254 217.2867989 3.573311084e-43
28.35515613 402.8658993 290.6073833 3.573311084e-43
26.73816941 424.0275264 275.483171 3.573311084e-43
128.0036873 168.4875631 139.1831015 3.573311084e-43
123.4247064 166.5929982 160.3011781 3.573311084e-43
121.7947838 163.7730943 170.0376466 3.573311084e-43
119.0045359 231.2752414 111.8875746 3.573311084e-43
113.7633836 254.9065716 109.3721067 3.573311084e-43
108.6742078 218.5262408 168.2969901 3.573311084e-43
105.174357 223.6220028 177.669203 3.573311084e-43
102.691479 234.3950622 176.9138178 3.573311084e-43
99.21839498 232.1534952 193.7637914 3.573311084e-43
96.82875303 244.8960987 190.5810076 3.573311084e-43
89.80228474 262.4249516 201.8476726 3.573311084e-43
82.59365629 284.0085601 209.6822414 3.573311084e-43
79.69202953 372.8661793 129.9080202 3.573311084e-43
73.56432115 290.8393328 240.3949694 3.573311084e-43
65.97843648 296.5509213 266.2260263 3.573311084e-43
58.33901836 316.9371678 277.1015618 3.573311084e-43
54.86414439 425.2963825 179.5532911 3.573311084e-43
43.58420785 360.8765667 293.3842674 3.573311084e-43
37.01960792 380.2592963 300.8008327 3.573311084e-43
32.9775886 405.5131685 291.5898632 3.573311084e-43
31.51599532 429.957369 272.4199865 3.573311084e-43
131.906998 148.0411508 167.0625313 3.573311084e-43
129.0684236 182.9114085 142.8691665 3.573311084e-43
128.6773365 198.3582485 128.5272132 3.573311084e-43
123.7884637 134.5981459 214.9357407 3.573311084e-43
125.1282642 226.1225121 114.6570111 3.573311084e-43
120.2437034 170.3562531 192.7786451 3.573311084e-43
116.6730713 158.1512984 220.3429108 3.573311084e-43
114.2255839 177.5747162 210.4914992 3.573311084e-43
112.8692676 283.2703826 106.8344211 3.573311084e-43
103.4281806 210.2783862 221.8387859 3.573311084e-43
103.0577584 320.9948353 108.8632427 3.573311084e-43
96.43710295 236.4575974 224.0094244 3.573311084e-43
90.21868054 271.0558323 214.2386345 3.573311084e-43
87.90323689 364.3933869 127.3777822 3.573311084e-43
80.63855294 282.0570279 242.9419673 3.573311084e-43
77.93381216 280.2406408 256.1374059 3.573311084e-43
74.61864358 399.8762727 146.2565773 3.573311084e-43
66.73059596 415.0104016 163.6051759 3.573311084e-43
55.0155578 341.3993802 288.7640125 3.573311084e-43
51.1055822 440.5673893 202.5436022 3.573311084e-43
44.59451572 445.275461 224.9156889 3.573311084e-43
40.01553479 443.3808961 246.0337655 3.573311084e-43
37.39971811 435.5402095 265.088699 3.573311084e-43
135.885402 152.8892988 168.4630146 3.573311084e-43
133.2160518 159.7232701 172.5624267 3.573311084e-43
130.9291648 135.122714 207.5775793 3.573311084e-43
131.7406277 215.4863305 121.0541087 3.573311084e-43
128.8045053 240.3932005 107.5750361 3.573311084e-43
124.4516991 259.0819258 106.4553954 3.573311084e-43
115.0373787 178.7526004 228.9375208 3.573311084e-43
114.2404788 296.2655312 110.7160509 3.573311084e-43
108.5685369 318.6994995 111.2415498 3.573311084e-43
99.98471724 240.1083835 228.4508745 3.573311084e-43
95.69838039 268.1039818 217.4260745 3.573311084e-43
95.28825556 362.1762289 121.8334513 3.573311084e-43
88.57005211 267.6756033 247.6939252 3.573311084e-43
90.83790135 370.9015665 131.4281028 3.573311084e-43
83.19164923 264.6993439 273.2756696 3.573311084e-43
83.53603683 390.5156309 141.6900702 3.573311084e-43
75.83446134 409.5888479 154.1838714 3.573311084e-43
68.49720617 420.552554 173.5418653 3.573311084e-43
60.60915855 435.6866829 190.8904638 3.573311084e-43
50.00432922 369.7225029 303.4943038 3.573311084e-43
47.49378953 443.1332822 238.0620359 3.573311084e-43
43.7988427 428.3022687 268.8628332 3.573311084e-43
138.9176144 169.3608661 161.7990429 3.573311084e-43
136.9458263 159.3193006 180.4359731 3.573311084e-43
135.3918919 126.4935661 220.8926172 3.573311084e-43
131.8920411 131.5893281 230.26483 3.573311084e-43
126.7044223 140.5460005 242.7048835 3.573311084e-43
127.1731247 268.9883462 107.8827526 3.573311084e-43
121.8387364 290.6501324 107.7946833 3.573311084e-43
109.9553689 189.7750065 261.859865 3.573311084e-43
105.3979477 227.84966 241.5434738 3.573311084e-43
101.7297676 205.6813175 279.8220317 3.573311084e-43
104.6942839 347.3321348 120.8946052 3.573311084e-43
97.12312503 266.4244725 236.2632255 3.573311084e-43
87.38508196 155.5484693 391.6973605 3.573311084e-43
87.67683107 240.7390234 302.3553617 3.573311084e-43
86.2730832 258.5024096 289.8541129 3.573311084e-43
79.18624746 164.1174514 417.1372878 3.573311084e-43
81.76488358 273.9085614 292.7801366 3.573311084e-43
79.92603408 282.480742 291.6067481 3.573311084e-43
75.23998625 309.935493 282.8137819 3.573311084e-43
72.38237407 423.4311579 177.3697472 3.573311084e-43
65.07619759 435.0513787 195.9186081 3.573311084e-43
58.44081636 437.1333916 221.5272264 3.573311084e-43
51.13553484 393.4532214 297.2752094 3.573311084e-43
49.95364975 423.8060541 270.8231368 3.573311084e-43
143.7929884 185.2540964 148.0215662 3.573311084e-43
141.5017894 152.6596967 191.3236123 3.573311084e-43
143.4019013 200.7009364 133.679613 3.573311084e-43
140.2214613 228.3495326 118.3867099 3.573311084e-43
135.8729671 255.0321015 108.9801756 3.573311084e-43
130.5385788 276.6938877 108.8921064 3.573311084e-43
126.4611688 293.2974016 108.7771633 3.573311084e-43
113.5608286 186.7449783 272.9699429 3.573311084e-43
114.7754194 330.9436766 118.7286228 3.573311084e-43
104.6290415 203.5391388 292.9683788 3.573311084e-43
96.43110192 156.8077299 375.6074282 3.573311084e-43
94.86764866 163.294699 375.4387374 3.573311084e-43
100.6335588 372.025682 135.4024579 3.573311084e-43
87.24206138 152.3620856 418.6527142 3.573311084e-43
95.29485848 385.6936245 143.6012822 3.573311084e-43
87.05811129 267.0176228 300.8223738 3.573311084e-43
78.74106393 170.353608 435.6101833 3.573311084e-43
77.19485851 208.8159518 402.2939182 3.573311084e-43
73.4196115 215.9969252 410.6614334 3.573311084e-43
70.43947449 216.2657496 422.8521744 3.573311084e-43
72.73661249 430.7490092 191.3789749 3.573311084e-43
65.51936012 436.3449303 215.7873307 3.573311084e-43
59.89663969 436.110397 239.5552446 3.573311084e-43
56.57463711 429.1575598 260.6464473 3.573311084e-43
148.3800302 179.2510073 158.1000726 3.573311084e-43
146.4617755 154.5347839 191.6925241 3.573311084e-43
144.6989142 133.1011339 221.2393112 3.573311084e-43
145.7633186 226.7107115 119.955884 3.573311084e-43
141.1972735 248.7976776 116.2132799 3.573311084e-43
131.0681434 153.3685144 257.3054616 3.573311084e-43
124.9921785 167.2677917 268.349688 3.573311084e-43
119.5913209 179.6227049 278.1667781 3.573311084e-43
117.3432415 226.9667418 238.5998885 3.573311084e-43
109.2480569 142.8921734 359.4368743 3.573311084e-43
108.1775507 151.8895339 354.6089509 3.573311084e-43
107.7147874 205.3360481 301.2599285 3.573311084e-43
102.0748191 173.1261402 358.1754166 3.573311084e-43
99.09899407 181.3888082 362.079264 3.573311084e-43
95.04835084 190.6549931 369.4420816 3.573311084e-43
92.68547562 196.0602676 373.7370585 3.573311084e-43
87.93385341 158.9077547 432.0483738 3.573311084e-43
90.29925067 272.0971056 305.0682591 3.573311084e-43
88.86873608 297.1978208 285.0892496 3.573311084e-43
81.08433836 219.6883994 397.8349065 3.573311084e-43
77.21585529 224.8998287 408.6298204 3.573311084e-43
73.03227338 215.5522676 435.8029567 3.573311084e-43
70.76694618 230.9209298 429.3836414 3.573311084e-43
73.14869633 431.3860462 212.0568303 3.573311084e-43
65.25723171 383.2259406 294.8914446 3.573311084e-43
64.0175012 420.2595875 261.7707442 3.573311084e-43
153.1932468 193.8312082 145.9408616 3.573311084e-43
151.5149976 158.379415 189.6340373 3.573311084e-43
153.1397133 208.5058662 130.9853403 3.573311084e-43
146.7366087 128.5642311 240.4675918 3.573311084e-43
141.8243861 135.435692 253.912343 3.573311084e-43
141.9287681 271.9875488 112.2260194 3.573311084e-43
136.1635902 292.451973 115.178917 3.573311084e-43
132.5748153 303.5720346 118.6916349 3.573311084e-43
122.6459881 180.7630996 287.2674607 3.573311084e-43
121.1351734 227.8758017 244.8551691 3.573311084e-43
123.7405762 330.3295827 127.9757785 3.573311084e-43
113.417245 159.6732532 347.6956668 3.573311084e-43
111.3919234 164.3063457 351.3770755 3.573311084e-43
116.4697904 350.6001618 137.428613 3.573311084e-43
103.4201586 138.158227 411.7784077 3.573311084e-43
99.48951811 142.056627 424.1915873 3.573311084e-43
106.8050506 375.6195007 151.9855573 3.573311084e-43
99.22095588 270.7303075 292.2148584 3.573311084e-43
93.68805452 209.1710837 379.0413893 3.573311084e-43
95.33433 299.2667531 278.9582244 3.573311084e-43
96.40304631 400.8701743 169.3879037 3.573311084e-43
84.23655364 230.7921818 396.2212969 3.573311084e-43
84.8123229 329.8852116 291.3102087 3.573311084e-43
85.69025511 419.5557011 194.8815788 3.573311084e-43
73.32866639 229.5509331 443.1435565 3.573311084e-43
76.35102805 364.5209361 290.8847578 3.573311084e-43
68.97154824 240.2458147 450.3108093 3.573311084e-43
73.59275382 377.3792069 289.124675 3.573311084e-43
72.30900874 389.7748083 281.6737882 3.573311084e-43
71.51389874 396.6869573 277.8505624 3.573311084e-43
158.1929354 212.3504974 128.9268534 3.573311084e-43
155.4580109 154.5772047 200.130547 3.573311084e-43
153.4422082 119.8975936 244.4372907 3.573311084e-43
148.8675392 125.9968724 257.2684737 3.573311084e-43
148.5411316 261.3513672 118.623117 3.573311084e-43
143.8507718 280.8122746 118.1170444 3.573311084e-43
130.701802 169.0077338 288.7828871 3.573311084e-43
129.8021472 323.8638241 132.3634808 3.573311084e-43
127.2260331 332.6673394 134.0354944 3.573311084e-43
120.3213575 234.2276257 264.7507656 3.573311084e-43
123.2375472 343.2465537 139.7800462 3.573311084e-43
109.6992804 136.2880711 410.5021798 3.573311084e-43
106.7191433 136.5568955 422.6929208 3.573311084e-43
108.5734508 270.5608713 276.3204909 3.573311084e-43
100.7053359 151.7692022 432.1188814 3.573311084e-43
103.5679921 275.4627881 292.1926407 3.573311084e-43
106.2087856 386.5669275 166.2172236 3.573311084e-43
98.88194429 302.9175391 283.3996745 3.573311084e-43
99.12015995 402.7827511 179.1021544 3.573311084e-43
87.60200776 238.4977233 397.2306507 3.573311084e-43
84.62618271 246.7603913 401.1344982 3.573311084e-43
86.92511063 350.6428692 284.0595428 3.573311084e-43
87.51471074 418.4170392 211.486896 3.573311084e-43
84.53457372 418.6858636 223.677637 3.573311084e-43
73.465354 232.2731815 462.8167144 3.573311084e-43
72.27053303 238.6444832 461.2253225 3.573311084e-43
71.53758041 246.8696617 455.7838309 3.573311084e-43
161.6386898 198.044052 152.3694893 3.573311084e-43
159.2145521 146.8359063 215.481854 3.573311084e-43
159.627199 171.3582845 188.3893394 3.573311084e-43
157.9739266 239.1699441 125.1620316 3.573311084e-43
148.2091168 135.6312699 273.1184058 3.573311084e-43
148.5621284 277.4352442 124.9590192 3.573311084e-43
136.3947407 162.6576425 294.5932904 3.573311084e-43
128.8623895 153.6945731 335.3798687 3.573311084e-43
133.3186828 326.8580954 137.6140638 3.573311084e-43
130.6804113 334.3485814 140.9043431 3.573311084e-43
118.2920559 151.6811423 381.6885601 3.573311084e-43
115.6494725 151.1777846 393.265733 3.573311084e-43
116.891725 232.7387631 303.7012956 3.573311084e-43
120.0030108 361.6844665 157.3019918 3.573311084e-43
112.7918603 264.6734495 287.8216983 3.573311084e-43
109.9938834 260.8875184 303.4445355 3.573311084e-43
107.9417951 272.8579398 299.6481836 3.573311084e-43
99.65151446 168.856596 441.9137538 3.573311084e-43
106.1633131 393.3439315 182.4582852 3.573311084e-43
102.3259087 399.2118755 192.4440662 3.573311084e-43
95.50495028 342.0544094 280.1066038 3.573311084e-43
94.83326007 406.8930081 215.8477244 3.573311084e-43
82.804913 208.1222144 471.7830276 3.573311084e-43
82.95509951 258.711335 418.8251346 3.573311084e-43
80.03711988 260.2931888 429.3976099 3.573311084e-43
76.52864517 249.4012635 455.3436098 3.573311084e-43
163.8188418 172.8081917 192.4127861 3.573311084e-43
164.5111968 203.2392022 158.0380756 3.573311084e-43
164.395506 216.6008308 144.70082 3.573311084e-43
160.6910403 241.0825209 134.8762823 3.573311084e-43
156.7068664 259.6555788 132.3339406 3.573311084e-43
151.1281605 284.0590911 130.4320408 3.573311084e-43
138.1259603 159.5494365 313.6260063 3.573311084e-43
130.4286968 186.6164972 317.832914 3.573311084e-43
127.8033612 218.0885141 296.2625126 3.573311084e-43
121.4027786 256.7415044 283.0596264 3.573311084e-43
123.3330743 360.7396497 167.407372 3.573311084e-43
117.9322166 373.0945629 177.2244621 3.573311084e-43
104.864442 183.9776443 427.522709 3.573311084e-43
103.8647171 210.2757215 404.5027327 3.573311084e-43
101.1375215 223.790507 401.9335171 3.573311084e-43
105.0387104 393.1306086 210.4452105 3.573311084e-43
93.87625458 204.7483825 452.0116865 3.573311084e-43
98.91010702 366.404153 263.7330376 3.573311084e-43
91.99680752 251.976752 411.0220959 3.573311084e-43
86.62271659 256.9943362 428.3169467 3.573311084e-43
83.32748074 242.70417 456.8859101 3.573311084e-43
167.2870509 143.1705738 231.6200762 3.573311084e-43
166.5273315 158.7330812 218.700824 3.573311084e-43
166.282119 216.7751982 159.6878714 3.573311084e-43
164.4260217 193.3720042 191.6620572 3.573311084e-43
163.1638364 245.7368237 142.7767025 3.573311084e-43
151.6404773 128.7583432 311.9929703 3.573311084e-43
152.2818209 292.458637 139.9776007 3.573311084e-43
137.9915636 172.35074 324.0075729 3.573311084e-43
133.8070868 218.3035697 293.9815871 3.573311084e-43
131.6349956 235.641776 285.1348731 3.573311084e-43
131.7264418 348.2121018 168.3092303 3.573311084e-43
123.1244793 292.946002 261.4670072 3.573311084e-43
119.3569613 371.4150536 196.0616132 3.573311084e-43
112.2113851 339.0113006 259.4770383 3.573311084e-43
109.150948 361.2921118 249.2344972 3.573311084e-43
169.453372 149.2535734 239.3249317 3.573311084e-43
167.7474612 176.4395001 218.3412246 3.573311084e-43
166.8185176 220.0382939 177.1291953 3.573311084e-43
166.4628212 244.1354923 153.6912157 3.573311084e-43
159.4027522 142.4132051 288.4521513 3.573311084e-43
161.2838263 269.0798519 149.557482 3.573311084e-43
149.2096747 156.2717943 316.7643546 3.573311084e-43
141.4459419 174.031982 330.8764216 3.573311084e-43
138.8335422 229.4855298 284.4453395 3.573311084e-43
135.8137026 213.1101522 314.0190005 3.573311084e-43
136.2824049 341.552498 179.1968695 3.573311084e-43
130.0821253 352.8257165 193.4776274 3.573311084e-43
125.045588 357.0711187 210.1589101 3.573311084e-43
120.8041607 354.4043718 230.6634186 3.573311084e-43
167.6657031 229.8665365 186.4791905 3.573311084e-43
162.9054569 176.7263364 261.3642929 3.573311084e-43
162.7759353 221.4068248 215.6885959 3.573311084e-43
161.1770913 219.2434356 224.6159314 3.573311084e-43
156.2614518 162.820662 303.5466982 3.573311084e-43
149.5146917 186.2581471 307.5311673 3.573311084e-43
145.0729614 210.971172 300.5520317 3.573311084e-43
140.9152512 249.5866727 278.0038065 3.573311084e-43
137.1840188 281.4056918 260.7015081 3.573311084e-43
133.293081 301.9482938 255.7317677 3.573311084e-43
131.7210038 292.4475756 272.136864 3.573311084e-43
164.9819591 244.1340265 206.0105313 3.573311084e-43
159.9100311 239.7290703 231.7878404 3.573311084e-43
155.0590709 303.2139514 186.4152037 3.573311084e-43
146.4346537 263.2790242 263.8083264 3.573311084e-43
144.519816 301.8570353 231.9147623 3.573311084e-43
154.2132815 364.2096516 149.920811 3.573311084e-43
