# .PCD v0.7 - Point Cloud Data file format
VERSION 0.7
FIELDS x y z rgb
SIZE 4 4 4 4
TYPE F F F F
COUNT 1 1 1 1
WIDTH 926
HEIGHT 1
VIEWPOINT 0 0 0 1 0 0 0
POINTS 926
DATA ascii
52.95400532 183.2598323 122.9123433 3.573311084e-43
66.05317548 183.2337654 51.67111054 3.573311084e-43
64.87215799 193.3185925 47.69475249 3.573311084e-43
63.6911405 203.4034197 43.71839444 3.573311084e-43
62.29042782 213.6437991 40.77688061 3.573311084e-43
60.67001994 224.0397307 38.87021102 3.573311084e-43
58.82991687 234.5912145 37.99838565 3.573311084e-43
56.55042341 245.4538027 39.19624873 3.573311084e-43
54.05123475 256.4719432 41.42895604 3.573311084e-43
51.5520461 267.4900837 43.66166335 3.573311084e-43
48.77550784 277.7797354 48.15472607 3.573311084e-43
46.10335596 286.145753 54.06396694 3.573311084e-43
39.19934098 296.5832218 80.86075931 3.573311084e-43
74.81040461 94.73625812 125.3906617 3.573311084e-43
75.31837183 99.00091062 118.2282615 3.573311084e-43
70.50692242 109.8064914 133.2604335 3.573311084e-43
75.85910636 114.3407111 99.46425981 3.573311084e-43
67.91426981 126.4399819 130.2097621 3.573311084e-43
66.45590272 135.7963204 128.4937595 3.573311084e-43
64.61579965 146.3478042 127.6219341 3.573311084e-43
62.55600138 157.0548402 127.784953 3.573311084e-43
60.71589831 167.606324 126.9131276 3.573311084e-43
72.7165925 168.3580182 60.84611594 3.573311084e-43
71.9749654 178.1317409 54.80006943 3.573311084e-43
71.01364311 188.0610159 49.78886715 3.573311084e-43
70.05232082 197.9902908 44.77766487 3.573311084e-43
68.87130333 208.075118 40.80130682 3.573311084e-43
67.69028584 218.1599452 36.82494877 3.573311084e-43
65.85018277 228.711429 35.9531234 3.573311084e-43
63.57068931 239.5740172 37.15098648 3.573311084e-43
61.51089104 250.2810533 37.31400534 3.573311084e-43
59.23139758 261.1436415 38.51186842 3.573311084e-43
56.29281853 272.4728864 42.81426418 3.573311084e-43
53.51628027 282.7625382 47.30732691 3.573311084e-43
43.15479658 296.5728834 89.43611572 3.573311084e-43
42.45990146 303.538931 86.03175855 3.573311084e-43
44.66777584 305.6751249 71.81611576 3.573311084e-43
81.50658893 90.93565894 122.9640655 3.573311084e-43
77.07687549 100.5460943 137.1520602 3.573311084e-43
81.49262425 104.818482 108.7207746 3.573311084e-43
81.19038754 114.2811003 100.6050397 3.573311084e-43
71.38360306 129.5484229 138.2131177 3.573311084e-43
69.70554077 139.0603136 137.5319592 3.573311084e-43
80.1683686 140.9008733 78.70885717 3.573311084e-43
79.80847748 149.4794506 71.8186334 3.573311084e-43
79.06685038 159.2531734 65.77258689 3.573311084e-43
62.22981967 179.498167 136.4956801 3.573311084e-43
60.1700214 190.205203 136.658699 3.573311084e-43
58.32991833 200.7566868 135.7868736 3.573311084e-43
75.82299239 197.6195756 43.84875628 3.573311084e-43
74.80401569 206.6648096 40.06306519 3.573311084e-43
73.403303 216.905189 37.12155136 3.573311084e-43
71.78289512 227.3011206 35.21488177 3.573311084e-43
51.65043649 249.8793974 121.4606384 3.573311084e-43
51.34819978 259.3420157 113.3449035 3.573311084e-43
65.54584592 258.5381877 36.92944952 3.573311084e-43
63.26635246 269.400776 38.1273126 3.573311084e-43
48.40657849 288.2457996 99.53680781 3.573311084e-43
57.49358075 290.1356317 48.14828228 3.573311084e-43
54.65938808 299.5412424 53.86685619 3.573311084e-43
51.32815062 308.3739167 62.88062974 3.573311084e-43
48.20568592 313.3593228 74.72675958 3.573311084e-43
83.13886134 87.02104475 148.2060871 3.573311084e-43
82.44396621 93.98709243 144.8017299 3.573311084e-43
81.8067255 101.8371811 140.1718616 3.573311084e-43
86.71951905 106.6825052 108.4453763 3.573311084e-43
86.57932313 115.1055304 100.5203083 3.573311084e-43
85.99973682 123.8396599 94.6649288 3.573311084e-43
86.07923609 132.1071329 85.70501658 3.573311084e-43
71.87854771 150.4854999 144.0099791 3.573311084e-43
84.97771787 150.459433 72.7687463 3.573311084e-43
84.45578597 160.0776035 65.68785556 3.573311084e-43
65.6414985 181.722567 145.7245469 3.573311084e-43
63.80139543 192.2740508 144.8527215 3.573311084e-43
61.74159716 202.9810869 145.0157403 3.573311084e-43
59.84383968 212.6485297 145.3694262 3.573311084e-43
58.22343181 223.0444613 143.4627566 3.573311084e-43
57.26210951 232.9737363 138.4515543 3.573311084e-43
56.08109202 243.0585634 134.4751962 3.573311084e-43
55.50150571 251.792693 128.6198167 3.573311084e-43
54.97957381 261.4108635 121.5389259 3.573311084e-43
54.4576419 271.0290341 114.4580352 3.573311084e-43
69.09467843 269.9141016 35.97289282 3.573311084e-43
66.37579458 281.0877943 39.24044436 3.573311084e-43
51.6780614 298.8932248 100.8406065 3.573311084e-43
60.76506366 300.7830569 49.45208099 3.573311084e-43
50.34592556 313.7093611 92.806381 3.573311084e-43
54.64636551 316.2136669 66.82611779 3.573311084e-43
85.74337848 76.86887159 174.5921104 3.573311084e-43
87.45420806 78.43212891 163.6716673 3.573311084e-43
87.96217529 82.69678141 156.5092671 3.573311084e-43
83.9032754 87.42035541 173.7202851 3.573311084e-43
86.49288577 88.36140386 158.660465 3.573311084e-43
92.94354568 92.11786251 119.6900702 3.573311084e-43
85.93514432 104.4789654 145.0706844 3.573311084e-43
84.09504125 115.0304492 144.198859 3.573311084e-43
82.57901975 123.5027467 143.7083676 3.573311084e-43
80.24187188 133.481294 146.1317419 3.573311084e-43
90.92439491 135.1663015 86.27379556 3.573311084e-43
75.40553536 154.4779818 150.7878234 3.573311084e-43
73.50777788 164.1454247 151.1415093 3.573311084e-43
89.90237596 161.7860745 64.37761305 3.573311084e-43
89.60013925 171.2486928 56.26187809 3.573311084e-43
88.63881696 181.1779678 51.25067581 3.573311084e-43
87.89718986 190.9516905 45.20462931 3.573311084e-43
63.09347773 215.9125229 154.4076259 3.573311084e-43
86.29862685 208.7310541 35.56355867 3.573311084e-43
60.23439796 235.5092408 149.7501095 3.573311084e-43
83.43954708 228.3277719 30.90604221 3.573311084e-43
58.91318455 254.0170931 137.8486834 3.573311084e-43
58.71533422 261.5560773 131.1491266 3.573311084e-43
77.74627464 257.3301005 31.96709965 3.573311084e-43
75.84851716 266.9975434 32.32078547 3.573311084e-43
73.12963331 278.1712361 35.58833701 3.573311084e-43
70.79248544 288.1497834 38.01171128 3.573311084e-43
67.95829278 297.5553942 43.73028519 3.573311084e-43
65.12410011 306.961005 49.4488591 3.573311084e-43
54.48526682 320.0428615 93.83800332 3.573311084e-43
55.65231963 323.8408573 83.57107048 3.573311084e-43
89.24852126 73.47792156 189.1043558 3.573311084e-43
87.50188214 78.41405528 193.5159091 3.573311084e-43
91.84905405 78.110686 170.1773352 3.573311084e-43
95.15540441 79.46911874 150.7874713 3.573311084e-43
96.9238884 81.916417 138.641517 3.573311084e-43
86.21647827 90.42251655 188.1233729 3.573311084e-43
87.10618148 93.49202368 180.1167955 3.573311084e-43
97.5113549 94.44854243 122.5192046 3.573311084e-43
96.55003261 104.3778174 117.5080023 3.573311084e-43
96.19014149 112.9563947 110.6177785 3.573311084e-43
87.64387376 126.4063632 143.2423024 3.573311084e-43
96.29148563 128.6072996 93.92346527 3.573311084e-43
96.15128971 137.0303248 85.99839727 3.573311084e-43
80.57477575 155.4579641 151.7379363 3.573311084e-43
95.59354826 153.1478863 72.40861669 3.573311084e-43
75.84282561 174.5310178 157.8101961 3.573311084e-43
95.25550201 169.1098957 57.78399187 3.573311084e-43
71.16852987 194.4881124 162.6569446 3.573311084e-43
69.1087316 205.1951484 162.8199635 3.573311084e-43
66.60954295 216.2132889 165.0526708 3.573311084e-43
64.49209027 226.036284 166.4412008 3.573311084e-43
63.31107278 236.1211112 162.4648428 3.573311084e-43
89.59195463 226.7619113 29.13295635 3.573311084e-43
62.59129055 253.2782659 148.6843952 3.573311084e-43
86.39787085 244.7460994 27.96130648 3.573311084e-43
84.50011337 254.4135423 28.3149923 3.573311084e-43
62.17070279 278.5473413 124.9091912 3.573311084e-43
61.20938049 288.4766162 119.8979889 3.573311084e-43
60.51448537 295.4426639 116.4936318 3.573311084e-43
77.01346983 291.1596797 31.14591371 3.573311084e-43
58.96265433 310.4143525 109.4942505 3.573311084e-43
70.7903853 308.5139238 47.10377236 3.573311084e-43
67.67884303 317.1910459 55.08270168 3.573311084e-43
59.17930728 327.8333393 90.34891483 3.573311084e-43
61.60687686 329.8139809 75.09842781 3.573311084e-43
96.1176688 72.32944521 183.0012261 3.573311084e-43
91.61937853 77.36412364 202.2819325 3.573311084e-43
101.1925031 76.13517621 151.4654078 3.573311084e-43
103.0186415 79.46651542 138.0939423 3.573311084e-43
98.13861529 85.69633922 158.218826 3.573311084e-43
93.20093462 91.04212209 179.5692208 3.573311084e-43
90.73755551 95.56087152 188.310818 3.573311084e-43
97.18821542 99.31733017 149.3404232 3.573311084e-43
102.5980538 104.7355908 114.3187383 3.573311084e-43
102.677553 113.0030638 105.3588261 3.573311084e-43
102.3176619 121.5816411 98.46860231 3.573311084e-43
90.3139255 138.4044859 146.4251226 3.573311084e-43
88.19647282 148.227481 147.8136526 3.573311084e-43
101.0182934 147.4729254 78.83277521 3.573311084e-43
101.2598334 154.7008052 70.06352995 3.573311084e-43
81.23176119 175.3554479 157.7254647 3.573311084e-43
78.83695892 184.4499543 161.3743502 3.573311084e-43
100.8283232 176.2781646 50.15552647 3.573311084e-43
73.88531358 203.6785602 168.4814542 3.573311084e-43
71.05112091 213.0841709 174.2000281 3.573311084e-43
68.49427785 223.2182705 177.6582466 3.573311084e-43
67.09356517 233.4586498 174.7167327 3.573311084e-43
95.57139896 222.5439278 31.03640405 3.573311084e-43
94.77211745 231.4336096 26.21586873 3.573311084e-43
66.3956278 257.9992365 153.2018842 3.573311084e-43
66.69482227 266.1111573 143.2071277 3.573311084e-43
90.55905697 258.4630317 21.25852777 3.573311084e-43
65.81299925 284.3079051 129.2360132 3.573311084e-43
65.07137215 294.0816279 123.1899667 3.573311084e-43
63.67065947 304.3220072 120.2484529 3.573311084e-43
81.04842471 299.4168141 30.76135789 3.573311084e-43
62.9399548 317.787446 110.3352058 3.573311084e-43
74.32829538 316.1981218 50.01441618 3.573311084e-43
71.5984891 323.6800984 57.14916824 3.573311084e-43
68.15194282 330.7446908 68.61396416 3.573311084e-43
65.19151891 334.6905038 80.65076097 3.573311084e-43
101.1716004 71.54134565 186.4023614 3.573311084e-43
103.4838611 71.75390537 173.6028967 3.573311084e-43
95.36606137 81.20105337 208.0249326 3.573311084e-43
108.8360451 76.2881251 139.806723 3.573311084e-43
103.0305061 85.94783282 161.4292943 3.573311084e-43
109.5169755 83.20490044 128.9677893 3.573311084e-43
98.20813423 93.06169758 180.3286668 3.573311084e-43
95.74475511 97.580447 189.0702639 3.573311084e-43
102.6348054 101.0258012 148.0301807 3.573311084e-43
101.3961335 110.2265874 145.2793338 3.573311084e-43
99.66041683 118.8544372 145.8236866 3.573311084e-43
108.8050735 121.6283101 93.20964985 3.573311084e-43
95.70286109 139.2289161 146.3403912 3.573311084e-43
92.98397723 150.4026087 149.6079428 3.573311084e-43
106.9619282 149.754333 74.22733306 3.573311084e-43
88.74907189 170.0485989 152.3850029 3.573311084e-43
106.6238819 165.7163423 59.60270825 3.573311084e-43
84.01712174 189.1216526 158.4572626 3.573311084e-43
81.34496987 197.4876702 164.3665035 3.573311084e-43
78.5107772 206.893281 170.0850774 3.573311084e-43
74.62484054 214.2689778 183.6195617 3.573311084e-43
104.6405407 202.2653903 32.69532346 3.573311084e-43
103.0201328 212.6613219 30.78865387 3.573311084e-43
70.14535289 244.2616273 177.0553757 3.573311084e-43
100.3230938 231.2184465 26.32180436 3.573311084e-43
99.02676753 239.5351918 24.79646869 3.573311084e-43
97.73044122 247.8519371 23.27113301 3.573311084e-43
70.34804116 275.5634371 143.6667491 3.573311084e-43
93.77288548 268.226416 23.78783768 3.573311084e-43
92.09482319 277.7383067 23.10667927 3.573311084e-43
90.25472012 288.2897905 22.2348539 3.573311084e-43
87.53583627 299.4634832 25.50240543 3.573311084e-43
84.424294 308.1406052 33.48133476 3.573311084e-43
66.31582409 326.5112371 113.0551827 3.573311084e-43
78.08590066 323.7267675 51.89021578 3.573311084e-43
66.73032737 336.3912397 100.6094039 3.573311084e-43
72.73067447 336.7670868 67.57589804 3.573311084e-43
69.71259615 339.8288587 80.83820603 3.573311084e-43
102.5951 71.47399967 208.8120266 3.573311084e-43
104.9073608 71.68655939 196.012562 3.573311084e-43
100.5243793 78.48931971 212.842246 3.573311084e-43
99.60978901 85.61091961 210.4727331 3.573311084e-43
99.29662987 91.38182192 206.2241986 3.573311084e-43
99.46959309 94.03394475 202.5476651 3.573311084e-43
99.8622515 96.53051537 197.8362873 3.573311084e-43
102.2321667 97.62711603 183.8113115 3.573311084e-43
108.7762905 95.76822459 150.1242953 3.573311084e-43
107.977009 104.6579064 145.30376 3.573311084e-43
106.2989467 114.169797 144.6226016 3.573311084e-43
115.3282946 115.1755881 94.45958724 3.573311084e-43
102.8851678 132.3095374 144.4857959 3.573311084e-43
100.1662839 143.4832301 147.7533475 3.573311084e-43
97.17005047 153.928434 153.2812544 3.573311084e-43
95.1102522 164.6354701 153.4442733 3.573311084e-43
93.8715803 173.8362563 150.6934264 3.573311084e-43
91.97382283 183.5036992 151.0471122 3.573311084e-43
112.26528 177.4603682 46.88153114 3.573311084e-43
87.46156788 202.4212006 156.0845277 3.573311084e-43
81.81806965 211.0413152 177.8977659 3.573311084e-43
83.03185444 212.031636 170.2725224 3.573311084e-43
77.06427465 222.7309369 191.7044267 3.573311084e-43
75.66356196 232.9713162 188.7629129 3.573311084e-43
75.14163006 242.5894868 181.6820221 3.573311084e-43
106.1981518 228.9240972 26.80907392 3.573311084e-43
75.2429742 258.2403917 164.9877089 3.573311084e-43
74.82542867 265.9349281 159.3229963 3.573311084e-43
101.3260057 256.420176 24.95626564 3.573311084e-43
73.72391046 284.2872282 146.386726 3.573311084e-43
72.98228336 294.0609509 140.3406795 3.573311084e-43
71.80126587 304.1457781 136.3643215 3.573311084e-43
70.83994358 314.075053 131.3531192 3.573311084e-43
90.69201037 308.3428265 29.25722652 3.573311084e-43
87.63812251 317.9039895 36.01064466 3.573311084e-43
69.85373417 334.195435 115.9658265 3.573311084e-43
70.19966062 339.4996807 108.6127594 3.573311084e-43
71.58640862 343.1421243 97.31098234 3.573311084e-43
76.09562133 341.7991619 74.16307542 3.573311084e-43
111.3838499 68.04151243 194.6208101 3.573311084e-43
106.989946 71.15255675 215.3176946 3.573311084e-43
99.19622783 78.52051843 250.1210644 3.573311084e-43
105.3009613 76.97273142 218.5037367 3.573311084e-43
97.12550713 85.53583847 254.1512838 3.573311084e-43
118.2271683 74.29454169 150.9390375 3.573311084e-43
119.3365667 77.2084966 141.8976158 3.573311084e-43
103.8644391 93.71250184 209.053333 3.573311084e-43
110.8479533 91.54250596 173.2966284 3.573311084e-43
108.8239646 95.75015096 179.9685371 3.573311084e-43
113.6105269 95.13567724 154.5602748 3.573311084e-43
121.2531268 92.49902471 115.6990375 3.573311084e-43
121.3217036 97.07478165 110.6063258 3.573311084e-43
121.4012029 105.3422546 101.6464136 3.573311084e-43
120.9836573 113.036791 95.98170102 3.573311084e-43
121.0631566 121.3042639 87.02178879 3.573311084e-43
120.5412247 130.9224344 79.94089806 3.573311084e-43
103.1494948 149.7104506 155.1847021 3.573311084e-43
101.3093917 160.2619344 154.3128768 3.573311084e-43
99.63132944 169.773825 153.6317184 3.573311084e-43
118.2228795 165.8589527 56.51937988 3.573311084e-43
117.8053339 173.5534891 50.85466729 3.573311084e-43
117.665138 181.9765143 42.92959929 3.573311084e-43
91.98264512 207.5595556 156.2719728 3.573311084e-43
85.3450573 215.0337971 184.6756103 3.573311084e-43
89.63457482 213.8463869 162.5625476 3.573311084e-43
81.85177905 224.9060646 193.4987169 3.573311084e-43
80.67076157 234.9908917 189.5223588 3.573311084e-43
113.9818896 220.6540209 23.07545714 3.573311084e-43
111.7023962 231.5166092 24.27332022 3.573311084e-43
109.5849435 241.3396043 25.66185026 3.573311084e-43
107.687186 251.0070471 26.01553608 3.573311084e-43
105.5697334 260.8300422 27.40406612 3.573311084e-43
103.7296303 271.381526 26.53224075 3.573311084e-43
101.8895272 281.9330098 25.66041538 3.573311084e-43
75.38590793 309.022301 141.9166546 3.573311084e-43
74.58662642 317.9119828 137.0961193 3.573311084e-43
95.53716918 311.4019951 29.82600551 3.573311084e-43
92.42562692 320.0791172 37.80493483 3.573311084e-43
89.03673505 328.0277505 48.04421957 3.573311084e-43
74.54777464 341.9859128 112.476738 3.573311084e-43
75.05574187 346.2505653 105.3143379 3.573311084e-43
80.22404016 344.4409462 79.06189827 3.573311084e-43
102.3196346 76.32471377 265.477487 3.573311084e-43
103.2560698 76.58654585 260.112599 3.573311084e-43
117.8136071 67.20414051 190.5873688 3.573311084e-43
104.4122002 76.69282571 253.7128666 3.573311084e-43
105.1289402 77.11021001 249.3828228 3.573311084e-43
98.93074276 84.27334711 275.7167718 3.573311084e-43
106.8506922 82.36518331 234.5951791 3.573311084e-43
106.3645698 85.48396279 234.0231782 3.573311084e-43
100.3860676 92.49154768 259.322283 3.573311084e-43
125.604283 77.41071784 137.6735076 3.573311084e-43
107.5425451 92.97367463 219.8890449 3.573311084e-43
108.0505123 97.23832714 212.7266447 3.573311084e-43
107.8417396 101.0855953 209.8942884 3.573311084e-43
118.3403769 96.426764 157.5800762 3.573311084e-43
111.2633987 104.21211 188.0534021 3.573311084e-43
117.9228314 104.1213004 151.9153636 3.573311084e-43
106.2322541 115.1732429 204.1204183 3.573311084e-43
106.6825669 118.5538545 198.1835293 3.573311084e-43
127.0316785 113.3945644 92.79243701 3.573311084e-43
126.8338282 120.9335486 86.0928802 3.573311084e-43
111.4770094 139.2056358 150.797575 3.573311084e-43
126.2760867 137.0511102 72.50309961 3.573311084e-43
126.0782364 144.5900944 65.8035428 3.573311084e-43
105.066997 167.7905801 156.1886764 3.573311084e-43
103.4465891 178.1865117 154.2820068 3.573311084e-43
102.2079172 187.3872979 151.5311599 3.573311084e-43
101.7903717 195.0818343 145.8664473 3.573311084e-43
99.67291903 204.9048294 147.2549774 3.573311084e-43
89.90194409 213.672761 191.3719452 3.573311084e-43
92.71124964 214.4582573 175.2772809 3.573311084e-43
92.98859924 215.186746 173.0169255 3.573311084e-43
86.96336504 225.0020059 195.674341 3.573311084e-43
86.44143314 234.6201765 188.5934502 3.573311084e-43
119.532866 220.4388579 23.18139277 3.573311084e-43
84.46113414 253.5946854 179.7965569 3.573311084e-43
115.9570463 239.6181914 22.85392017 3.573311084e-43
84.72451907 268.2059972 163.2929105 3.573311084e-43
111.8841817 258.2245884 25.82164722 3.573311084e-43
109.384993 269.2427289 28.05435453 3.573311084e-43
107.3251948 279.9497649 28.21737339 3.573311084e-43
105.0457013 290.8123532 29.41523647 3.573311084e-43
102.7662078 301.6749414 30.61309955 3.573311084e-43
78.23984531 327.3642626 137.5557407 3.573311084e-43
97.7569081 320.0195064 38.94571469 3.573311084e-43
94.74975221 326.7729943 48.34082216 3.573311084e-43
92.45933632 333.9438666 53.40588577 3.573311084e-43
89.23248524 340.8529068 63.83583746 3.573311084e-43
86.49175652 344.6431675 74.83779004 3.573311084e-43
81.71611665 348.9493572 96.37885185 3.573311084e-43
126.1629666 64.0827577 178.4658407 3.573311084e-43
109.0267414 76.21583058 259.1836904 3.573311084e-43
121.1676315 68.54449962 201.0417467 3.573311084e-43
111.0616525 75.69990158 248.6445811 3.573311084e-43
111.119307 76.58394252 247.4190699 3.573311084e-43
113.2118725 76.95205446 235.6544495 3.573311084e-43
101.3592544 89.04359014 287.6688373 3.573311084e-43
102.4109984 91.0735041 279.8529268 3.573311084e-43
130.9822962 74.54343196 141.4559768 3.573311084e-43
112.9205582 90.10638875 223.671514 3.573311084e-43
131.9873082 79.38102097 130.998377 3.573311084e-43
108.4331904 98.83278318 239.0850199 3.573311084e-43
132.4952754 83.64567347 123.8359768 3.573311084e-43
132.7368155 90.87355324 115.0667315 3.573311084e-43
118.3522415 102.9080814 180.9154281 3.573311084e-43
121.4388966 104.4220664 162.5604084 3.573311084e-43
108.6498434 116.25177 219.9396843 3.573311084e-43
132.8848916 103.7167831 101.0141076 3.573311084e-43
107.4111715 125.4525562 217.1888374 3.573311084e-43
119.562984 121.4729412 155.1796932 3.573311084e-43
132.3738821 117.0266696 90.06601636 3.573311084e-43
105.3046412 138.9672673 214.7101669 3.573311084e-43
132.6154222 124.2545494 81.29677109 3.573311084e-43
132.4066494 128.1018176 78.4644148 3.573311084e-43
105.5571037 149.886863 202.0737212 3.573311084e-43
113.5347076 148.8627402 159.7266173 3.573311084e-43
111.1975597 158.8412875 162.1499915 3.573311084e-43
131.7663665 153.5264452 55.72405502 3.573311084e-43
129.9262634 164.077929 54.85222965 3.573311084e-43
129.1269819 172.9676108 50.03169433 3.573311084e-43
128.270046 180.9732517 46.4366702 3.573311084e-43
94.18148127 211.5832363 200.3286355 3.573311084e-43
95.39526605 212.5735571 192.703392 3.573311084e-43
101.9393899 210.7146656 159.0163759 3.573311084e-43
98.31988042 215.1271352 174.1577054 3.573311084e-43
126.9488326 199.481104 34.53524415 3.573311084e-43
92.03914148 231.5973384 191.3410752 3.573311084e-43
90.6384288 241.8377178 188.3995614 3.573311084e-43
89.67710651 251.7669927 183.3883591 3.573311084e-43
89.1551746 261.3851632 176.3074684 3.573311084e-43
89.01497868 269.8081884 168.3824004 3.573311084e-43
117.9322029 258.5823619 22.63238321 3.573311084e-43
85.87854931 288.6764175 165.9852393 3.573311084e-43
113.2002527 277.6554155 28.70464294 3.573311084e-43
110.7010641 288.673556 30.93735025 3.573311084e-43
108.4215706 299.5361443 32.13521333 3.573311084e-43
82.5770369 326.1587787 145.2869199 3.573311084e-43
82.10183697 332.9692742 140.8477185 3.573311084e-43
82.22806822 338.4290721 134.5294956 3.573311084e-43
82.95573064 342.5381724 126.3322512 3.573311084e-43
95.54693358 338.2474529 62.25341856 3.573311084e-43
85.61391784 348.0549777 106.1797194 3.573311084e-43
87.42913381 347.6946009 96.67545444 3.573311084e-43
130.3381174 63.91686701 186.0063528 3.573311084e-43
122.6487856 69.36119458 222.2259008 3.573311084e-43
122.0473544 70.71189218 224.1049223 3.573311084e-43
115.7338481 76.1069474 252.8898937 3.573311084e-43
119.5263209 74.34660066 234.0720306 3.573311084e-43
107.8824755 82.59086813 288.9187747 3.573311084e-43
106.0205276 85.75891997 295.7813503 3.573311084e-43
104.5512381 91.42354241 297.9325482 3.573311084e-43
104.1227701 95.42636284 296.1350361 3.573311084e-43
118.8532706 88.69608033 222.9332724 3.573311084e-43
118.147453 91.97041202 223.3961158 3.573311084e-43
115.6264195 95.60512051 233.3632241 3.573311084e-43
137.8265566 83.58606264 124.9767567 3.573311084e-43
114.2724388 103.0378248 233.0633996 3.573311084e-43
111.0923197 107.13919 246.1350407 3.573311084e-43
138.5651415 91.38687892 112.9123118 3.573311084e-43
109.9113022 117.2240171 242.1586826 3.573311084e-43
139.3723032 103.7634521 95.75515515 3.573311084e-43
120.709134 120.6771065 179.8497139 3.573311084e-43
122.3155773 124.1639979 167.5130926 3.573311084e-43
117.9325958 130.9667582 184.3427766 3.573311084e-43
138.2131305 121.2317113 84.04439606 3.573311084e-43
115.1560575 141.25641 188.8358394 3.573311084e-43
106.9806034 149.819517 224.4833864 3.573311084e-43
138.1882434 131.4228183 73.66830568 3.573311084e-43
116.888732 150.2030993 170.1809952 3.573311084e-43
107.0133707 160.894665 212.8817849 3.573311084e-43
137.8392747 143.6931116 62.91088139 3.573311084e-43
137.5728476 146.6563389 61.30403628 3.573311084e-43
137.2129565 155.2349163 54.41381251 3.573311084e-43
110.489642 182.4797596 171.704896 3.573311084e-43
111.0085316 190.4361281 160.6752953 3.573311084e-43
111.2500717 197.6640079 151.90605 3.573311084e-43
95.44294013 212.5554834 222.5476338 3.573311084e-43
95.11885855 214.6346697 222.1662999 3.573311084e-43
100.9462424 212.358394 192.8093277 3.573311084e-43
102.5994176 213.0376104 183.1143957 3.573311084e-43
104.7496376 214.2897633 170.1242641 3.573311084e-43
132.2224593 198.5374522 36.9015352 3.573311084e-43
96.81572346 230.0807501 197.0025659 3.573311084e-43
96.29379156 239.6989206 189.9216752 3.573311084e-43
129.1655292 225.6731542 25.54446192 3.573311084e-43
94.69522854 257.4782842 180.2806045 3.573311084e-43
93.95360145 267.2520069 174.234558 3.573311084e-43
92.55288876 277.4923863 171.2930442 3.573311084e-43
91.31421687 286.6931725 168.5421973 3.573311084e-43
90.73463056 295.4273021 162.6868178 3.573311084e-43
117.0155124 286.0681022 29.35493135 3.573311084e-43
114.2389741 296.3577539 33.84799407 3.573311084e-43
111.4624359 306.6474057 38.3410568 3.573311084e-43
109.0676336 315.741912 41.98994225 3.573311084e-43
87.44404058 336.6013793 138.1212978 3.573311084e-43
87.45496302 340.2930953 134.2540973 3.573311084e-43
101.2022963 336.1086558 63.77553234 3.573311084e-43
98.51922202 340.7829574 73.55197373 3.573311084e-43
95.55879811 344.7287704 85.58877054 3.573311084e-43
133.6921418 65.25722612 196.4607307 3.573311084e-43
129.2982379 68.36827045 217.1576153 3.573311084e-43
119.9089989 75.9410567 260.4304059 3.573311084e-43
136.7211425 65.88717014 179.3312222 3.573311084e-43
123.5394309 75.22030313 241.4218759 3.573311084e-43
113.6531471 82.22015286 287.9898661 3.573311084e-43
138.3743177 66.56638651 169.6362903 3.573311084e-43
140.3624969 68.85813256 156.4554917 3.573311084e-43
142.0842489 74.11310586 141.667848 3.573311084e-43
107.9380298 103.8390495 296.7853246 3.573311084e-43
109.6021274 108.2099819 283.2231921 3.573311084e-43
111.0356074 109.0447505 274.5631043 3.573311084e-43
143.8387682 90.44322714 115.2786028 3.573311084e-43
144.5087763 93.66828648 108.3068696 3.573311084e-43
144.6350075 99.12808436 101.9886467 3.573311084e-43
144.6568524 106.5115163 94.25424568 3.573311084e-43
110.6835965 138.8895828 245.6951886 3.573311084e-43
143.335639 125.0193686 82.35281962 3.573311084e-43
108.4259479 157.135603 239.1586507 3.573311084e-43
143.4837151 137.8625985 68.30019569 3.573311084e-43
110.7600535 164.7315947 218.624785 3.573311084e-43
110.5512807 168.5788629 215.7924287 3.573311084e-43
110.8395528 172.9990677 209.6648728 3.573311084e-43
115.4064199 172.5401462 185.2914547 3.573311084e-43
142.3821969 156.2148986 55.36392541 3.573311084e-43
141.8960745 159.3336781 54.79192453 3.573311084e-43
115.266224 180.9631713 177.3663867 3.573311084e-43
141.2588338 167.1837667 50.16205617 3.573311084e-43
140.668325 172.2261803 48.17387715 3.573311084e-43
102.3946292 202.099941 225.5950833 3.573311084e-43
94.21917501 210.663048 261.2426304 3.573311084e-43
102.3588196 208.599332 219.0861935 3.573311084e-43
115.8178809 199.9946878 154.7351844 3.573311084e-43
98.51961495 213.1673538 235.2623672 3.573311084e-43
106.1622148 210.5307013 196.4011299 3.573311084e-43
112.8683794 207.6322167 162.9047807 3.573311084e-43
100.1837126 217.5382862 221.7002347 3.573311084e-43
108.150394 212.8224473 183.2203313 3.573311084e-43
111.3414355 212.4127982 166.2814898 3.573311084e-43
137.4384317 196.7097595 40.49333743 3.573311084e-43
94.33144158 230.0056689 240.6811166 3.573311084e-43
101.9849639 231.0607324 197.9526788 3.573311084e-43
135.2384375 215.8398207 32.73128829 3.573311084e-43
134.05742 225.9246478 28.75493024 3.573311084e-43
132.8764025 236.009475 24.77857218 3.573311084e-43
98.24406106 268.8541981 179.3240478 3.573311084e-43
130.0173228 255.6061928 20.12105572 3.573311084e-43
95.98641246 287.1002183 172.7875099 3.573311084e-43
124.6839414 276.0299441 28.07233694 3.573311084e-43
122.3467936 286.0084914 30.49571121 3.573311084e-43
93.20683196 314.9644091 159.1700812 3.573311084e-43
116.5740219 306.7433471 40.51668089 3.573311084e-43
92.37174092 330.3534819 147.840656 3.573311084e-43
92.49797216 335.8132798 141.5224331 3.573311084e-43
93.00593939 340.0779323 134.3600329 3.573311084e-43
94.43941937 340.9127009 125.6999452 3.573311084e-43
103.8972352 337.9156716 77.33444293 3.573311084e-43
101.0988521 340.8218913 89.56190669 3.573311084e-43
137.7629062 67.01496953 202.5850648 3.573311084e-43
140.6765982 65.87683166 187.9065786 3.573311084e-43
128.1539721 74.743308 246.8926996 3.573311084e-43
123.540373 78.00990454 268.6244283 3.573311084e-43
116.0707364 83.2986799 303.8091321 3.573311084e-43
130.4662328 74.95586772 234.0932349 3.573311084e-43
117.5042163 84.13344849 295.1490443 3.573311084e-43
113.9423612 89.429959 309.0648626 3.573311084e-43
113.1898117 95.51196574 306.8860166 3.573311084e-43
112.934307 102.166909 301.411971 3.573311084e-43
148.9861638 84.03977749 123.9631168 3.573311084e-43
113.2444239 113.9705457 287.550014 3.573311084e-43
114.4114767 117.7685415 277.2830812 3.573311084e-43
149.3072031 99.53513017 106.2339593 3.573311084e-43
149.8728247 104.6838236 97.84604791 3.573311084e-43
112.9858769 138.200028 263.965477 3.573311084e-43
111.3078146 147.7119186 263.2843186 3.573311084e-43
148.5734562 130.5751079 78.21022082 3.573311084e-43
148.2135651 139.1536853 71.31999705 3.573311084e-43
105.5568878 175.8302063 265.5708872 3.573311084e-43
114.8526628 173.8727701 217.014718 3.573311084e-43
115.1876668 175.4852998 213.5288514 3.573311084e-43
117.9969723 176.270796 197.4341871 3.573311084e-43
117.3488092 180.4291687 196.6715193 3.573311084e-43
102.1431088 193.9699467 265.4340816 3.573311084e-43
146.1507246 167.4352603 53.37252449 3.573311084e-43
111.0104159 196.0153309 215.0804003 3.573311084e-43
111.0213383 199.7070469 211.2131998 3.573311084e-43
144.8653207 179.4437216 47.97998829 3.573311084e-43
111.4825735 206.7793745 201.4091103 3.573311084e-43
113.8524887 207.8759751 187.3841344 3.573311084e-43
103.8150866 219.607134 229.8942572 3.573311084e-43
104.3697858 221.0641115 225.3735463 3.573311084e-43
101.9064067 225.5828609 234.1151435 3.573311084e-43
100.5991579 230.2078902 236.4570083 3.573311084e-43
141.6930818 204.8113417 39.07393739 3.573311084e-43
107.5001307 237.3449604 191.5497246 3.573311084e-43
106.7008492 246.2346422 186.7291892 3.573311084e-43
104.8607461 256.786126 185.8573639 3.573311084e-43
135.9749222 244.0047774 29.75890446 3.573311084e-43
102.2213615 276.2272916 180.1650032 3.573311084e-43
132.6764521 263.9125996 27.17107645 3.573311084e-43
99.36228176 295.8240094 175.5074867 3.573311084e-43
127.7824611 284.0252464 33.05266922 3.573311084e-43
98.80454031 311.941571 161.9177061 3.573311084e-43
122.3914254 303.5649568 42.22946163 3.573311084e-43
119.7192735 311.9309744 48.1387025 3.573311084e-43
116.5500769 319.7240555 57.34314301 3.573311084e-43
99.04303813 336.7439898 135.0379695 3.573311084e-43
111.7386274 330.5296363 72.37531496 3.573311084e-43
106.5812516 336.0309713 94.76055403 3.573311084e-43
102.1873477 339.1420157 115.4574386 3.573311084e-43
141.174585 69.23936959 211.8139315 3.573311084e-43
147.3837049 65.76794847 181.612782 3.573311084e-43
142.989801 68.8789928 202.3096665 3.573311084e-43
133.7626028 75.41218589 245.773124 3.573311084e-43
129.3686989 78.52323022 266.4700086 3.573311084e-43
121.8990623 83.81200558 301.6547123 3.573311084e-43
124.8704087 83.55790865 285.750715 3.573311084e-43
149.4295385 68.94373546 167.2064722 3.573311084e-43
152.0300713 73.5764999 148.2794516 3.573311084e-43
152.2139569 79.92033872 140.7357175 3.573311084e-43
153.2766234 85.64196868 129.0526066 3.573311084e-43
116.4940619 117.2345389 296.5882138 3.573311084e-43
117.0596836 122.3832324 288.2003024 3.573311084e-43
155.1464515 103.7401718 100.212339 3.573311084e-43
126.4349578 128.6932691 230.684221 3.573311084e-43
114.373567 144.632073 279.8662524 3.573311084e-43
112.7531591 155.0280046 277.9595828 3.573311084e-43
153.5339238 135.4023584 76.32797743 3.573311084e-43
109.0152986 175.2469313 277.4414433 3.573311084e-43
108.1474402 179.5608562 277.7136197 3.573311084e-43
120.2415984 174.6972002 216.9299867 3.573311084e-43
115.8009625 180.6159196 234.9851819 3.573311084e-43
151.4601609 159.9922175 62.24770539 3.573311084e-43
151.4134289 162.7998925 59.60601606 3.573311084e-43
118.4124177 188.9404 212.1909608 3.573311084e-43
150.7185338 169.7659402 56.20165888 3.573311084e-43
149.7572115 179.6952152 51.19045661 3.573311084e-43
148.3564988 189.9355946 48.24894278 3.573311084e-43
108.4405502 222.8218549 231.4978804 3.573311084e-43
111.469551 223.4517989 214.3683719 3.573311084e-43
146.8513997 202.099608 43.89125081 3.573311084e-43
104.5078816 233.0052268 242.3906754 3.573311084e-43
112.6584486 234.6332267 196.367038 3.573311084e-43
144.2120152 221.5407737 38.19889012 3.573311084e-43
142.8113025 231.781153 35.25737629 3.573311084e-43
108.560697 263.4307308 188.9586747 3.573311084e-43
107.1599843 273.6711102 186.0171608 3.573311084e-43
105.9789668 283.7559373 182.0408028 3.573311084e-43
105.0176445 293.6852123 177.0296005 3.573311084e-43
104.6577534 302.2637896 170.1393767 3.573311084e-43
130.2218952 292.4872055 41.13753418 3.573311084e-43
127.3877026 301.8928162 46.85610809 3.573311084e-43
124.4958555 310.4143861 53.80019319 3.573311084e-43
103.8554296 328.7280104 147.20835 3.573311084e-43
105.9012632 331.9037974 132.8020402 3.573311084e-43
107.6120928 333.4670547 121.8815971 3.573311084e-43
114.5956071 331.2970589 86.1248925 3.573311084e-43
110.2017032 334.4081032 106.821777 3.573311084e-43
146.5635206 70.0637997 211.7292002 3.573311084e-43
149.4772126 68.92566183 197.050714 3.573311084e-43
142.6666615 73.74778054 229.1308851 3.573311084e-43
135.8561105 78.56989925 261.2110561 3.573311084e-43
139.6485832 76.80955251 242.3931931 3.573311084e-43
132.6759914 82.67126438 274.2826971 3.573311084e-43
128.2820875 85.78230871 294.9795817 3.573311084e-43
154.8761285 70.65220651 165.8962297 3.573311084e-43
122.0480805 99.44483685 314.8046408 3.573311084e-43
121.630535 107.1393733 309.1399283 3.573311084e-43
157.6823918 89.01224176 131.691074 3.573311084e-43
159.1844486 94.42276728 117.9382746 3.573311084e-43
159.7500703 99.57146072 109.5503632 3.573311084e-43
149.6659362 114.1102947 149.4187966 3.573311084e-43
147.8616426 118.1623874 155.0558611 3.573311084e-43
118.5377954 140.7744663 291.2739651 3.573311084e-43
159.6893736 116.2619588 92.66538298 3.573311084e-43
159.2609057 120.2647792 90.86787092 3.573311084e-43
116.4312651 154.2891774 288.7952947 3.573311084e-43
158.4616242 129.154461 86.0473356 3.573311084e-43
114.7532028 163.8010681 288.1141362 3.573311084e-43
126.0262346 160.443662 230.244369 3.573311084e-43
126.5342018 164.7083145 223.0819688 3.573311084e-43
125.7239979 169.9062803 222.128634 3.573311084e-43
125.3531844 174.7931416 219.1056107 3.573311084e-43
124.7050212 178.9515143 218.3429429 3.573311084e-43
109.719016 192.33674 286.070661 3.573311084e-43
155.8082749 162.4784496 66.11168401 3.573311084e-43
154.8469526 172.4077246 61.10048173 3.573311084e-43
108.8948474 211.4175288 270.8740353 3.573311084e-43
107.7138299 221.502356 266.8976773 3.573311084e-43
115.8067426 222.246315 222.099551 3.573311084e-43
107.7933292 229.7698289 257.937765 3.573311084e-43
111.9784603 230.5060528 234.4085242 3.573311084e-43
111.3302971 234.6644255 233.6458564 3.573311084e-43
107.8260965 240.8449769 246.3361635 3.573311084e-43
118.0006523 238.2653319 193.6406173 3.573311084e-43
117.9539203 241.0730069 190.998928 3.573311084e-43
117.7451475 244.9202751 188.1665717 3.573311084e-43
117.1546388 249.9626887 186.1783927 3.573311084e-43
146.8820669 233.5388964 41.38171033 3.573311084e-43
145.5280862 240.9716008 41.08188584 3.573311084e-43
144.1273735 251.2119802 38.14037201 3.573311084e-43
142.2872704 261.763464 37.26854664 3.573311084e-43
139.7880818 272.7816044 39.50125395 3.573311084e-43
137.2312387 282.915704 42.95947245 3.573311084e-43
134.778782 291.1261694 47.83386909 3.573311084e-43
132.4883661 298.2970416 52.8989327 3.573311084e-43
129.978255 305.6234661 58.99884053 3.573311084e-43
111.3727403 323.4211614 141.8678881 3.573311084e-43
124.7850696 317.6241922 74.87518975 3.573311084e-43
113.9732731 328.0539259 122.9408675 3.573311084e-43
119.3612666 326.0887546 95.65358371 3.573311084e-43
129.7055872 85.71496273 317.389247 3.573311084e-43
152.8888914 71.15006189 206.2795808 3.573311084e-43
149.6511179 74.36738608 220.576733 3.573311084e-43
147.9512107 76.49584475 227.6299756 3.573311084e-43
141.7997453 80.85130681 256.605614 3.573311084e-43
158.9936249 69.60227488 174.6622531 3.573311084e-43
145.3725228 79.24651229 238.8225951 3.573311084e-43
134.8271535 86.71301868 288.495118 3.573311084e-43
160.1606777 73.40027073 164.3953202 3.573311084e-43
126.453849 102.8151099 317.4431083 3.573311084e-43
162.343665 85.72757158 139.8035871 3.573311084e-43
162.1458146 93.26655578 133.1040302 3.573311084e-43
163.2084811 98.98818574 121.4209193 3.573311084e-43
155.8650757 109.736759 150.2874001 3.573311084e-43
156.0380389 112.3888818 146.6108665 3.573311084e-43
152.7535334 118.413881 158.2663294 3.573311084e-43
122.0071286 143.8829073 299.2773207 3.573311084e-43
120.8728431 151.1600594 297.9426519 3.573311084e-43
163.1914742 130.4455478 89.06713695 3.573311084e-43
131.7392518 159.1889057 230.5409716 3.573311084e-43
162.1257655 142.2984568 82.63975653 3.573311084e-43
130.7202751 168.2341398 226.7552805 3.573311084e-43
161.326484 151.1881386 77.81922121 3.573311084e-43
114.7620251 187.8569245 293.3389968 3.573311084e-43
128.8910944 182.4773396 222.0162546 3.573311084e-43
124.9475034 188.9689954 236.7762501 3.573311084e-43
112.8175357 200.3320424 291.0509933 3.573311084e-43
111.8562134 210.2613173 286.039791 3.573311084e-43
113.0232662 214.0593132 275.7728582 3.573311084e-43
157.5855812 188.9816043 59.19059024 3.573311084e-43
113.0093015 227.9421362 261.5295673 3.573311084e-43
119.449039 228.0068789 226.426373 3.573311084e-43
118.3038311 231.592315 228.9589048 3.573311084e-43
154.622115 210.5019562 53.11689563 3.573311084e-43
123.656015 236.1265347 195.1627311 3.573311084e-43
123.3895878 239.089762 193.555886 3.573311084e-43
114.1156577 248.4306301 234.3776542 3.573311084e-43
123.0764287 244.8606643 189.3073516 3.573311084e-43
120.5195856 254.9947638 192.7655701 3.573311084e-43
118.3444786 263.933718 195.3796113 3.573311084e-43
117.6028515 273.7074407 189.3335648 3.573311084e-43
117.2429603 282.2860181 182.443341 3.573311084e-43
144.1252734 271.5761206 47.2324331 3.573311084e-43
141.6728167 279.786586 52.10682974 3.573311084e-43
117.1931861 302.6682321 161.6911603 3.573311084e-43
117.596767 308.8565187 153.112582 3.573311084e-43
118.5441246 312.8100668 143.8804933 3.573311084e-43
132.2338035 307.7415863 74.62743957 3.573311084e-43
129.9901196 312.1047835 82.3341925 3.573311084e-43
127.9084764 315.4283876 90.2316124 3.573311084e-43
124.6707029 318.6457118 104.5287646 3.573311084e-43
135.2098316 88.30747472 314.8534933 3.573311084e-43
164.8219509 70.11560055 172.5078333 3.573311084e-43
153.6174959 78.04876359 225.2848889 3.573311084e-43
139.1176131 88.31520987 293.5846078 3.573311084e-43
160.046311 74.42179026 194.0488951 3.573311084e-43
151.2585032 80.64387891 235.4426642 3.573311084e-43
146.8645993 83.75492324 256.1395487 3.573311084e-43
131.0465453 94.95468283 330.648333 3.573311084e-43
165.3984949 78.95600999 160.2527214 3.573311084e-43
166.9005518 84.36653551 146.499922 3.573311084e-43
166.9223966 91.74996749 138.7655209 3.573311084e-43
167.3836319 98.82229504 128.9614314 3.573311084e-43
126.2648209 134.4099505 315.968412 3.573311084e-43
125.5699258 141.3759982 312.5640549 3.573311084e-43
169.0914192 117.9600914 99.93049688 3.573311084e-43
168.1300969 127.8893663 94.9192946 3.573311084e-43
167.1687746 137.8186413 89.90809232 3.573311084e-43
166.5315339 145.6687299 85.27822396 3.573311084e-43
165.3505164 155.7535571 81.30186591 3.573311084e-43
131.1575653 188.2871757 233.7776531 3.573311084e-43
117.0503409 201.0501926 297.3659943 3.573311084e-43
116.5642185 204.1689721 296.7939934 3.573311084e-43
115.383201 214.2537993 292.8176353 3.573311084e-43
119.4639458 216.9136573 267.8722164 3.573311084e-43
116.7232171 220.703918 278.8741689 3.573311084e-43
118.7223187 226.68738 261.8261699 3.573311084e-43
127.0349265 227.2757868 215.9931994 3.573311084e-43
127.8669754 229.461253 209.2121331 3.573311084e-43
123.2642987 236.4195655 227.0766614 3.573311084e-43
128.767601 236.2224761 197.3383552 3.573311084e-43
157.7206347 218.4972586 58.09722791 3.573311084e-43
117.9667269 250.3439258 241.5368325 3.573311084e-43
119.0761253 253.2578807 232.4954108 3.573311084e-43
155.1279821 235.1307492 55.04655655 3.573311084e-43
124.0107637 265.4866368 193.0345246 3.573311084e-43
124.0326086 272.8700688 185.3001235 3.573311084e-43
149.8164457 262.9379324 55.26343673 3.573311084e-43
147.5260298 270.1088047 60.32850033 3.573311084e-43
145.5706179 278.8922066 61.90769734 3.573311084e-43
125.7045864 298.5072562 149.7602991 3.573311084e-43
125.9928584 302.9274609 143.6327432 3.573311084e-43
127.3796065 306.5699045 132.3309661 3.573311084e-43
129.090436 308.1331618 121.4105229 3.573311084e-43
133.3799535 306.9457516 99.29746026 3.573311084e-43
139.6156 91.6777478 317.4919607 3.573311084e-43
135.4990457 95.51728086 335.9284898 3.573311084e-43
169.0080241 73.64142585 176.1811449 3.573311084e-43
147.0385046 89.19664749 279.6655676 3.573311084e-43
164.6717746 77.63651112 195.6525183 3.573311084e-43
153.6870149 85.41412194 247.3947296 3.573311084e-43
166.7066858 77.12058212 185.1134091 3.573311084e-43
157.918878 83.34267077 226.5071781 3.573311084e-43
134.4691466 100.8707989 336.0099992 3.573311084e-43
169.5378362 85.28951033 161.2843437 3.573311084e-43
133.9581371 114.1806854 325.061908 3.573311084e-43
171.9872506 94.65358392 138.2994557 3.573311084e-43
172.4484859 101.7259115 128.4953662 3.573311084e-43
172.6900259 108.9537912 119.7261209 3.573311084e-43
172.8739116 115.2976301 112.1823868 3.573311084e-43
127.580892 153.8407777 318.8514077 3.573311084e-43
172.5358653 131.2596394 97.55776204 3.573311084e-43
171.3548479 141.3444666 93.58140398 3.573311084e-43
170.3935256 151.2737415 88.57020171 3.573311084e-43
169.3745489 160.3189755 84.78451061 3.573311084e-43
168.135877 169.5197617 82.03366375 3.573311084e-43
167.5453682 174.5621753 80.04548472 3.573311084e-43
166.1446555 184.8025547 77.1039709 3.573311084e-43
125.0258446 220.3902102 264.1109515 3.573311084e-43
118.4926432 225.9408177 293.9307671 3.573311084e-43
124.655031 225.2770716 261.0879282 3.573311084e-43
132.0888581 226.4876873 219.3943347 3.573311084e-43
133.1982565 229.4016422 210.352913 3.573311084e-43
133.8682645 232.6267015 203.3811798 3.573311084e-43
161.7804767 216.563286 68.08876246 3.573311084e-43
127.9006848 243.3260024 224.8130841 3.573311084e-43
160.808232 222.800845 66.9447607 3.573311084e-43
131.1135712 250.2997852 200.1398415 3.573311084e-43
158.2155794 239.4343355 63.89408935 3.573311084e-43
131.3769561 264.911097 183.6361952 3.573311084e-43
130.9594106 272.6056334 177.9714826 3.573311084e-43
152.7310797 264.5893959 67.78750309 3.573311084e-43
132.1483082 283.7870612 159.9701487 3.573311084e-43
148.3122887 277.8915473 78.10829725 3.573311084e-43
146.0218728 285.0624196 83.17336086 3.573311084e-43
144.0555385 290.1541055 88.61975838 3.573311084e-43
140.7133786 295.2950638 101.5007325 3.573311084e-43
145.9986252 93.64805093 310.8168301 3.573311084e-43
141.6047213 96.75909526 331.5137146 3.573311084e-43
146.2759748 94.37653966 308.5564747 3.573311084e-43
153.2018346 91.32250284 274.0252813 3.573311084e-43
167.5973311 82.97969066 204.3093841 3.573311084e-43
168.3140711 83.39707495 199.9793403 3.573311084e-43
157.5490065 91.01913356 250.6867074 3.573311084e-43
137.6143982 106.0584262 343.6320209 3.573311084e-43
160.7400481 90.60948441 233.7478658 3.573311084e-43
136.9662351 110.2167988 342.869353 3.573311084e-43
136.606344 118.7953762 335.9791292 3.573311084e-43
176.0003606 95.52728639 145.6493009 3.573311084e-43
134.4998137 132.3100873 333.5004588 3.573311084e-43
176.4834408 109.9830459 128.1108104 3.573311084e-43
176.4476312 116.482437 121.6019205 3.573311084e-43
176.6891713 123.7103167 112.8326753 3.573311084e-43
128.5977685 165.1596841 331.7291599 3.573311084e-43
128.2378774 173.7382615 324.8389361 3.573311084e-43
127.2765551 183.6675364 319.8277339 3.573311084e-43
125.6561472 194.063468 317.9210643 3.573311084e-43
124.0357393 204.4593996 316.0143947 3.573311084e-43
123.2364578 213.3490814 311.1938594 3.573311084e-43
122.0554404 223.4339086 307.2175013 3.573311084e-43
168.9190937 194.8770434 81.70296926 3.573311084e-43
122.0196308 229.9332996 300.7086115 3.573311084e-43
123.7304604 231.4965569 289.7881683 3.573311084e-43
136.2063545 225.4377556 228.160358 3.573311084e-43
138.6339241 227.4183972 212.909871 3.573311084e-43
139.3039321 230.6434566 205.9381378 3.573311084e-43
129.8103068 240.1398769 247.7947502 3.573311084e-43
133.3363523 241.3427575 227.3700421 3.573311084e-43
163.9425612 224.2967563 78.43398284 3.573311084e-43
136.9418971 250.8131109 197.9854217 3.573311084e-43
160.690823 241.3969035 78.48784416 3.573311084e-43
159.2791879 247.9455669 79.41353086 3.573311084e-43
139.0314205 268.7557619 168.1103099 3.573311084e-43
139.4350013 274.9440485 159.5317316 3.573311084e-43
152.5809034 272.1103065 90.9321881 3.573311084e-43
150.0131379 278.55269 98.25760712 3.573311084e-43
147.052714 282.498503 110.2944039 3.573311084e-43
149.3059176 97.7960851 318.6295187 3.573311084e-43
149.8029624 98.36902161 315.334319 3.573311084e-43
156.1273911 96.66568238 282.6821471 3.573311084e-43
158.0002615 97.18934653 271.9523709 3.573311084e-43
160.9716078 96.93524961 256.0483736 3.573311084e-43
141.3720035 113.5870719 345.5078205 3.573311084e-43
169.2265612 96.63961548 211.4409143 3.573311084e-43
172.3599484 95.34592539 195.7275839 3.573311084e-43
175.4933355 94.0522353 180.0142536 3.573311084e-43
164.9012342 104.3264167 227.0450871 3.573311084e-43
179.0303035 98.94683182 155.7223449 3.573311084e-43
138.1779197 131.5712601 344.3361706 3.573311084e-43
136.6618982 140.0435576 343.8456791 3.573311084e-43
180.0213508 117.6672439 131.0214542 3.573311084e-43
180.0431957 125.0506758 123.2870532 3.573311084e-43
180.122695 133.3181488 114.3271409 3.573311084e-43
130.8175074 173.7771953 340.8488691 3.573311084e-43
153.4570349 161.447033 230.3927132 3.573311084e-43
155.0634781 164.9339244 218.0560919 3.573311084e-43
178.142396 152.2926577 105.5302476 3.573311084e-43
129.496294 192.2850476 328.9474431 3.573311084e-43
128.5349717 202.2143226 323.9362408 3.573311084e-43
126.9145638 212.6102542 322.0295712 3.573311084e-43
125.8955871 221.6554882 318.2438801 3.573311084e-43
136.8445373 220.3772684 259.9927789 3.573311084e-43
136.7978054 223.1849435 257.3510896 3.573311084e-43
136.3693374 227.1877639 255.5535775 3.573311084e-43
143.0755021 224.2892793 222.0572283 3.573311084e-43
125.1181505 237.928602 305.6889437 3.573311084e-43
136.4379142 231.7635208 250.4608658 3.573311084e-43
145.2366445 229.2331481 205.1998962 3.573311084e-43
168.9169935 215.2411838 90.79503034 3.573311084e-43
168.1067896 220.4391496 89.84169554 3.573311084e-43
144.2395126 245.6618141 193.6798041 3.573311084e-43
145.683915 250.1882987 181.1525158 3.573311084e-43
146.6889271 255.0258877 170.694916 3.573311084e-43
147.4742439 260.019029 161.2721604 3.573311084e-43
157.2670637 258.6345293 109.4207915 3.573311084e-43
154.9189934 264.9213606 115.7113663 3.573311084e-43
152.3979599 268.5560691 125.6784747 3.573311084e-43
158.728866 104.0880482 290.957679 3.573311084e-43
152.253319 110.5226966 319.5519835 3.573311084e-43
162.8096107 106.7479062 266.01226 3.573311084e-43
148.9797359 120.2394118 327.3402458 3.573311084e-43
164.8087123 112.7313682 248.964261 3.573311084e-43
175.0300001 107.3440482 198.9104041 3.573311084e-43
173.330093 109.4725069 205.9636468 3.573311084e-43
180.3136072 107.302511 170.2069422 3.573311084e-43
165.2122932 118.9196549 240.3856827 3.573311084e-43
166.7034276 120.6384644 230.5000837 3.573311084e-43
183.4688392 113.3922529 146.7592108 3.573311084e-43
183.5374161 117.9680098 141.6664991 3.573311084e-43
141.5974787 155.0619151 331.5873454 3.573311084e-43
138.8676725 162.5438918 338.7220974 3.573311084e-43
136.253175 171.7939504 343.4058271 3.573311084e-43
134.6327671 182.189882 341.4991575 3.573311084e-43
133.0123592 192.5858136 339.5924879 3.573311084e-43
131.3919514 202.9817452 337.6858183 3.573311084e-43
130.4306291 212.9110201 332.674616 3.573311084e-43
129.4116524 221.9562541 328.888925 3.573311084e-43
142.4889777 214.5467553 265.3820932 3.573311084e-43
148.5360567 212.1149273 234.9902767 3.573311084e-43
148.4316703 214.0385614 233.5740985 3.573311084e-43
143.2742945 219.5398965 255.9593376 3.573311084e-43
174.2622394 201.29875 106.1791011 3.573311084e-43
148.95056 221.9949299 222.5444979 3.573311084e-43
173.0702995 207.6918611 106.0699436 3.573311084e-43
131.6632165 238.8593119 299.2044801 3.573311084e-43
171.1148876 216.4752631 107.6491406 3.573311084e-43
151.5262057 236.8188014 193.2413869 3.573311084e-43
