# .PCD v0.7 - Point Cloud Data file format
VERSION 0.7
FIELDS x y z rgb
SIZE 4 4 4 4
TYPE F F F F
COUNT 1 1 1 1
WIDTH 473
HEIGHT 1
VIEWPOINT 0 0 0 1 0 0 0
POINTS 473
DATA ascii
5.699518761 176.2235216 79.84693298 3.573311084e-43
5.520966736 182.4253547 74.62597081 3.573311084e-43
5.777559928 188.9007359 88.60614274 3.573311084e-43
5.667124523 197.6327535 87.43788965 3.573311084e-43
5.189660521 208.6214073 71.12121155 3.573311084e-43
5.12419444 217.1903585 71.85672708 3.573311084e-43
5.148004371 222.6583932 75.2027237 3.573311084e-43
12.05584068 151.7973316 96.79255824 3.573311084e-43
11.53274472 160.1742679 77.37505536 3.573311084e-43
11.39982466 168.9878186 75.25491796 3.573311084e-43
11.9639291 175.2738412 102.6431942 3.573311084e-43
11.94343235 183.6797261 105.2824783 3.573311084e-43
10.95609513 195.591537 66.99073715 3.573311084e-43
10.82317507 204.4050877 64.87059975 3.573311084e-43
10.71273966 213.1371053 63.70234667 3.573311084e-43
11.59890338 217.3295578 104.3352793 3.573311084e-43
10.56659685 229.4044351 64.13976948 3.573311084e-43
11.29536793 234.1676199 98.10951193 3.573311084e-43
10.61487934 243.1152883 72.02881888 3.573311084e-43
10.98323321 246.4082198 89.57135621 3.573311084e-43
17.92015058 140.2640069 97.58495329 3.573311084e-43
17.59941658 147.9071447 86.7344092 3.573311084e-43
18.05770909 150.8739435 108.0844838 3.573311084e-43
17.32497717 160.936784 80.18174605 3.573311084e-43
18.05374826 165.6999687 114.1514885 3.573311084e-43
16.99895706 177.8563792 73.00409437 3.573311084e-43
16.82106767 186.8329962 68.98018836 3.573311084e-43
16.66566294 195.7280801 65.90816665 3.573311084e-43
16.51025821 204.6231639 62.83614494 3.573311084e-43
17.83884116 208.1370589 122.5884877 3.573311084e-43
17.70592109 216.9506096 120.4683503 3.573311084e-43
16.23119533 229.7040445 61.15343036 3.573311084e-43
16.17300326 237.32089 61.80722194 3.573311084e-43
16.12208519 243.9856298 62.37928958 3.573311084e-43
16.99303826 247.3075099 101.978614 3.573311084e-43
16.1776417 256.7443773 70.18661503 3.573311084e-43
16.24642095 262.0493456 75.43638027 3.573311084e-43
16.34495888 266.3206751 81.55630588 3.573311084e-43
27.29470328 95.63591534 238.4101838 3.573311084e-43
27.74439652 94.00525203 257.44787 3.573311084e-43
26.83046203 99.17079002 219.5359454 3.573311084e-43
28.03735976 95.72010478 271.0194222 3.573311084e-43
28.12068703 99.12086171 276.1057395 3.573311084e-43
28.00231498 106.030201 273.8221542 3.573311084e-43
26.24189999 116.1166775 200.8539581 3.573311084e-43
26.78153187 114.1598815 223.6991815 3.573311084e-43
27.08176912 114.9226286 237.1890098 3.573311084e-43
27.53146235 113.2919653 256.226696 3.573311084e-43
24.00335836 134.417024 110.3720277 3.573311084e-43
24.03510494 141.7077368 114.8333565 3.573311084e-43
23.31758367 152.6411498 87.96422707 3.573311084e-43
24.05362876 156.4522289 121.8522456 3.573311084e-43
22.98362691 167.7380668 79.67124319 3.573311084e-43
22.78325286 176.796217 74.69545286 3.573311084e-43
22.65033279 185.6097677 72.57531546 3.573311084e-43
22.49492807 194.5048516 69.50329375 3.573311084e-43
22.362008 203.3184022 67.38315636 3.573311084e-43
23.85525759 205.3094594 133.7169654 3.573311084e-43
22.08095721 220.0749311 62.1092733 3.573311084e-43
23.63438678 222.7734944 131.3804592 3.573311084e-43
23.50146671 231.5870451 129.2603218 3.573311084e-43
23.33085133 239.6115564 125.1546918 3.573311084e-43
23.1450253 246.7654953 120.0154536 3.573311084e-43
21.76751219 258.2406918 64.42634693 3.573311084e-43
21.76156345 264.7423653 66.90218319 3.573311084e-43
22.64706454 266.160034 106.3380597 3.573311084e-43
22.44602785 272.4434003 100.1652132 3.573311084e-43
21.93747991 278.9161252 80.5842624 3.573311084e-43
32.68816056 91.36435487 221.6071206 3.573311084e-43
33.13785379 89.73369156 240.6448068 3.573311084e-43
32.49373525 93.92083157 214.155494 3.573311084e-43
33.61796833 89.8441733 261.7497095 3.573311084e-43
33.82826693 90.93305302 271.4320005 3.573311084e-43
31.91773332 100.638156 191.7188903 3.573311084e-43
31.80597265 103.8206057 188.1565249 3.573311084e-43
31.46209134 108.7704928 175.1570403 3.573311084e-43
31.48656391 117.0133113 179.7000931 3.573311084e-43
34.20853325 112.6973661 297.272207 3.573311084e-43
33.99228591 118.1101599 290.0657523 3.573311084e-43
33.68543729 121.0743024 277.8547041 3.573311084e-43
29.71358881 137.3283509 110.4865134 3.573311084e-43
32.4792022 127.2997715 227.5682836 3.573311084e-43
33.46852732 123.7123123 269.4511932 3.573311084e-43
32.91434742 127.5733196 246.7694177 3.573311084e-43
29.76715741 141.7627467 114.7026703 3.573311084e-43
29.13957478 152.370027 91.64107812 3.573311084e-43
28.9689594 160.3945383 87.53544815 3.573311084e-43
28.80561803 167.466944 83.34809424 3.573311084e-43
28.57482267 174.7839491 76.30508739 3.573311084e-43
28.42669195 182.7269273 73.15134174 3.573311084e-43
28.29377189 191.540478 71.03120434 3.573311084e-43
28.13836716 200.4355619 67.95918263 3.573311084e-43
28.02793175 209.1675794 66.79092955 3.573311084e-43
29.78372327 211.1323442 144.6290742 3.573311084e-43
29.78571118 219.4566959 148.2202427 3.573311084e-43
27.64438221 236.478804 61.46412561 3.573311084e-43
29.55756636 237.8728367 145.9654605 3.573311084e-43
29.40943564 245.8158148 142.8117148 3.573311084e-43
27.46980599 259.3293405 63.42550037 3.573311084e-43
27.42616193 265.0419747 63.91584406 3.573311084e-43
28.68662826 266.0256852 119.6154778 3.573311084e-43
28.50080223 273.179624 114.4762395 3.573311084e-43
27.40831572 284.5469952 71.34335284 3.573311084e-43
27.45461031 289.9334966 75.64123378 3.573311084e-43
27.55314823 294.2048261 81.76115938 3.573311084e-43
27.66623418 296.5719442 87.71763709 3.573311084e-43
38.59215368 88.94442118 227.9761767 3.573311084e-43
39.04184691 87.31375788 247.0138629 3.573311084e-43
39.43929682 86.79826659 264.2295044 3.573311084e-43
38.03069977 93.75753422 205.3761251 3.573311084e-43
39.80765068 90.09119806 281.7720418 3.573311084e-43
37.5823318 100.9377653 188.7325512 3.573311084e-43
40.0860659 93.71026219 295.5070419 3.573311084e-43
40.23684716 96.86641962 303.4490121 3.573311084e-43
37.03013981 113.1231244 169.6419441 3.573311084e-43
40.38101704 103.7494666 312.6697625 3.573311084e-43
36.01238129 123.2937903 129.2829864 3.573311084e-43
35.46613803 128.9774759 107.716543 3.573311084e-43
37.04072699 126.0449382 175.5455009 3.573311084e-43
37.05660028 129.6902946 177.7761653 3.573311084e-43
39.97299493 122.8178727 302.7999058 3.573311084e-43
39.86850826 125.0482168 299.1558165 3.573311084e-43
39.71905228 127.4416271 293.6079585 3.573311084e-43
39.32226501 130.7319023 277.5893731 3.573311084e-43
37.37403608 139.6479659 195.8907703 3.573311084e-43
39.1278397 133.288379 270.1377465 3.573311084e-43
37.60681934 140.6553125 206.5249456 3.573311084e-43
38.46123649 137.5570522 242.6965494 3.573311084e-43
37.90705659 141.4180595 220.0147739 3.573311084e-43
34.8048359 155.4444203 89.85179515 3.573311084e-43
34.5892512 163.6319979 83.84239657 3.573311084e-43
34.40342516 170.7859367 78.70315834 3.573311084e-43
34.24802044 179.6810206 75.63113663 3.573311084e-43
34.07013105 188.6576376 71.60723062 3.573311084e-43
33.89951566 196.682149 67.50160065 3.573311084e-43
35.63215989 195.953663 143.1908049 3.573311084e-43
33.69319287 212.2419726 65.00164658 3.573311084e-43
33.62772679 220.8109238 65.73716212 3.573311084e-43
35.86230758 217.3366026 162.2860972 3.573311084e-43
35.96150814 224.3827159 169.603079 3.573311084e-43
33.37048594 243.0354874 63.80927568 3.573311084e-43
33.26732454 250.8153992 62.55929865 3.573311084e-43
35.49463132 248.2931836 159.1899577 3.573311084e-43
33.1277931 263.3558395 61.71794136 3.573311084e-43
35.04031462 261.9750882 145.0222201 3.573311084e-43
33.07820031 275.5701471 64.68412131 3.573311084e-43
33.07952557 281.1197149 67.07823362 3.573311084e-43
34.40744589 281.858826 125.6335203 3.573311084e-43
34.26658918 288.8496984 122.3980506 3.573311084e-43
33.11392269 299.5095634 76.32778707 3.573311084e-43
33.87245245 303.2391092 111.1676899 3.573311084e-43
33.2514812 310.1195 86.82731755 3.573311084e-43
33.3870518 312.4050849 93.73567957 3.573311084e-43
44.5265681 88.26563255 236.4124493 3.573311084e-43
44.97626134 86.63496924 255.4501355 3.573311084e-43
44.15953951 90.52226888 221.2640243 3.573311084e-43
44.10729617 91.6374409 219.4419796 3.573311084e-43
42.33894454 99.90123918 145.3584513 3.573311084e-43
42.42160918 100.5272122 149.2477125 3.573311084e-43
45.76454977 89.33087625 291.1601987 3.573311084e-43
43.2542043 100.285269 185.6644881 3.573311084e-43
41.79336392 108.3597086 124.9890641 3.573311084e-43
46.00593231 94.93568493 304.1067624 3.573311084e-43
46.07404893 97.46586933 308.1594714 3.573311084e-43
46.20961953 99.75145424 315.0678335 3.573311084e-43
41.34632122 121.0895076 110.7396025 3.573311084e-43
42.60612491 119.2984342 165.24218 3.573311084e-43
42.6219982 122.9437906 167.4728444 3.573311084e-43
42.66035615 126.5076139 170.6553932 3.573311084e-43
46.27377532 117.1076638 325.1875473 3.573311084e-43
40.78156911 143.5034297 95.40361176 3.573311084e-43
40.65526042 148.5900908 92.00469426 3.573311084e-43
40.54349975 151.7725405 88.44232886 3.573311084e-43
45.08606405 138.077625 281.9200158 3.573311084e-43
44.75673077 141.1233007 268.7570833 3.573311084e-43
44.24752019 144.8212417 247.9790764 3.573311084e-43
40.30609301 162.8164353 82.67810212 3.573311084e-43
43.77666757 152.083006 230.3836182 3.573311084e-43
41.39395606 163.5003054 130.6809374 3.573311084e-43
42.66103376 160.7571264 185.101791 3.573311084e-43
40.07596029 172.9082243 76.83215143 3.573311084e-43
41.32055333 170.2465784 130.3011207 3.573311084e-43
41.26897263 174.1365343 129.6761322 3.573311084e-43
39.91328155 182.7554138 73.84185367 3.573311084e-43
41.28550856 180.5566747 133.1038528 3.573311084e-43
42.20010568 178.1659206 172.2128334 3.573311084e-43
41.30204448 186.976815 136.5315733 3.573311084e-43
41.25906306 195.464233 138.2189732 3.573311084e-43
39.48476268 210.2297048 66.61128112 3.573311084e-43
41.36752553 209.8825924 149.0453995 3.573311084e-43
41.81854403 213.8014969 170.477198 3.573311084e-43
41.98387331 215.0534429 178.2557204 3.573311084e-43
39.23479584 231.5021626 64.60167074 3.573311084e-43
39.16932976 240.0711138 65.33718627 3.573311084e-43
42.206747 237.3884882 197.4327367 3.573311084e-43
39.12106223 257.8349892 70.69747853 3.573311084e-43
39.07014417 264.4997291 71.26954617 3.573311084e-43
41.29678832 259.2027296 166.7031491 3.573311084e-43
40.94563301 265.1047223 153.7853885 3.573311084e-43
40.8047763 272.0955948 150.5499189 3.573311084e-43
40.61167625 280.2016393 145.4924046 3.573311084e-43
38.83010187 295.9192168 73.96643647 3.573311084e-43
38.85457444 304.1620353 78.50948924 3.573311084e-43
38.90153166 312.3233207 84.00442633 3.573311084e-43
38.92600423 320.5661392 88.54747911 3.573311084e-43
39.09199614 324.5928692 97.52305764 3.573311084e-43
39.33271604 327.422894 109.2725652 3.573311084e-43
48.34742433 95.25096146 155.3715967 3.573311084e-43
49.34468609 93.48618039 198.3698386 3.573311084e-43
49.79437932 91.85551708 217.4075248 3.573311084e-43
50.24407256 90.22485378 236.445211 3.573311084e-43
50.69376579 88.59419047 255.4828972 3.573311084e-43
51.14345902 86.96352716 274.5205834 3.573311084e-43
49.08280679 96.28725659 188.0625591 3.573311084e-43
51.48139159 88.51531358 289.9959042 3.573311084e-43
51.6242362 89.8487928 296.8225423 3.573311084e-43
47.66759837 106.9734138 130.4879598 3.573311084e-43
47.48838371 110.400463 124.0699415 3.573311084e-43
47.33165371 113.7459791 118.6038075 3.573311084e-43
47.19740838 117.009962 114.0895577 3.573311084e-43
48.47969673 115.1373555 169.5440196 3.573311084e-43
46.99637169 123.2933283 107.9167113 3.573311084e-43
48.75083794 119.7085253 183.3607436 3.573311084e-43
48.45192596 124.495346 172.2650277 3.573311084e-43
46.6617523 135.6154614 98.42667122 3.573311084e-43
48.47639853 132.7381646 176.8080805 3.573311084e-43
46.48386291 144.5920784 94.40276521 3.573311084e-43
48.68074839 140.3287178 188.9662077 3.573311084e-43
51.70956635 133.04863 318.7493698 3.573311084e-43
51.60507968 135.2789741 315.1052804 3.573311084e-43
51.33592638 139.032156 304.8797249 3.573311084e-43
46.14263215 160.6411011 86.19150527 3.573311084e-43
50.85713711 144.471242 286.1689344 3.573311084e-43
48.51939492 155.7254751 188.3700223 3.573311084e-43
50.25865052 151.2700996 262.7804464 3.573311084e-43
49.99677122 154.0711758 252.4731669 3.573311084e-43
48.46120285 163.3423206 189.0238139 3.573311084e-43
45.77891673 176.7716569 77.02836103 3.573311084e-43
45.70485137 180.743146 75.4514882 3.573311084e-43
45.66054468 183.6809962 74.74477574 3.573311084e-43
48.606698 175.7749355 200.6386766 3.573311084e-43
48.66754061 179.2572256 204.7731096 3.573311084e-43
48.85535455 180.4276384 213.5035163 3.573311084e-43
47.83693339 187.8235205 171.9475024 3.573311084e-43
47.62002342 190.4615303 163.5439915 3.573311084e-43
47.21662478 197.4786951 148.8041863 3.573311084e-43
47.9744919 198.4334571 182.4470329 3.573311084e-43
48.30448782 198.1625653 196.8070215 3.573311084e-43
47.75030792 202.0235726 174.125246 3.573311084e-43
47.56381925 206.4027276 167.7889516 3.573311084e-43
45.26377238 218.446 71.97553201 3.573311084e-43
47.05593395 215.6502364 149.405057 3.573311084e-43
47.04932257 219.377126 150.6838371 3.573311084e-43
48.93869679 215.303124 231.8391753 3.573311084e-43
44.95362556 239.0109516 67.02854475 3.573311084e-43
48.66492001 231.1075472 226.4835683 3.573311084e-43
48.11867676 236.7912327 204.917125 3.573311084e-43
48.12000203 242.3408005 207.3112373 3.573311084e-43
44.84650333 261.6168887 71.84557245 3.573311084e-43
44.84849123 269.9412404 75.43674091 3.573311084e-43
47.40579393 267.148133 186.4273886 3.573311084e-43
44.84386776 281.9924817 80.30668948 3.573311084e-43
44.77112767 291.5135386 81.12392897 3.573311084e-43
44.69838758 301.0345955 81.94116845 3.573311084e-43
46.48393777 301.9657214 160.6494735 3.573311084e-43
46.30604838 310.9423384 156.6255675 3.573311084e-43
46.15791766 318.8853166 153.4718218 3.573311084e-43
45.99457629 325.9577223 149.2844679 3.573311084e-43
45.09651509 334.7686167 113.6032078 3.573311084e-43
45.33723499 337.5986414 125.3527153 3.573311084e-43
54.37244003 97.02082406 168.8124627 3.573311084e-43
55.51188377 93.81473831 217.4402865 3.573311084e-43
55.96157701 92.18407501 236.4779727 3.573311084e-43
56.41127024 90.5534117 255.5156589 3.573311084e-43
56.86096348 88.92274839 274.5533451 3.573311084e-43
54.57546462 99.06180947 178.5764777 3.573311084e-43
55.02515786 97.43114616 197.6141639 3.573311084e-43
57.00380809 90.25622761 281.3799832 3.573311084e-43
57.21410669 91.34510734 291.0622742 3.573311084e-43
53.45255681 108.6880355 133.3763744 3.573311084e-43
53.26606814 113.0671905 127.0400801 3.573311084e-43
57.68893512 100.7320465 315.8400693 3.573311084e-43
52.90830145 122.6960728 115.4010996 3.573311084e-43
57.91576965 108.2410665 328.9500809 3.573311084e-43
52.55053477 132.3249552 103.7621191 3.573311084e-43
52.34222407 139.5604271 97.67099652 3.573311084e-43
58.02489475 125.4342098 340.9735634 3.573311084e-43
57.95942867 134.003161 341.7090789 3.573311084e-43
51.92031658 163.3078285 89.16164386 3.573311084e-43
53.78720614 159.3153597 169.3650978 3.573311084e-43
53.73562544 163.2053156 168.7401093 3.573311084e-43
57.08584004 151.0568739 310.5708716 3.573311084e-43
56.65135746 153.5581098 292.5667936 3.573311084e-43
51.6981205 175.2222957 84.43102538 3.573311084e-43
56.39080343 161.9087538 284.6536264 3.573311084e-43
51.52750512 183.2468071 80.32539541 3.573311084e-43
51.45343976 187.2182962 78.74852258 3.573311084e-43
53.98759516 181.7319381 187.5902298 3.573311084e-43
54.61782832 182.2237933 215.4400466 3.573311084e-43
56.07999397 179.6989215 278.509583 3.573311084e-43
54.75406156 187.2841622 223.5454648 3.573311084e-43
54.73223954 190.1404792 223.7906367 3.573311084e-43
54.45514959 192.0709829 212.4497489 3.573311084e-43
51.10559762 206.9942084 71.81604275 3.573311084e-43
54.81622944 196.3160201 230.0740102 3.573311084e-43
54.92204138 199.6352438 236.1122118 3.573311084e-43
55.03512732 202.0023619 242.0686895 3.573311084e-43
55.4180292 203.391082 259.447779 3.573311084e-43
55.06687389 209.2930747 246.5300183 3.573311084e-43
54.92667982 219.0587311 244.4916049 3.573311084e-43
50.83645929 242.2221189 74.83982884 3.573311084e-43
54.42078242 236.6305916 229.6988787 3.573311084e-43
54.07822638 247.1300465 219.0935065 3.573311084e-43
53.76476639 253.8210786 208.1612385 3.573311084e-43
50.58914298 274.5937123 77.61844309 3.573311084e-43
50.59113088 282.9180641 81.20961155 3.573311084e-43
50.65263613 289.175138 86.54110074 3.573311084e-43
50.6843827 296.4658509 91.00242957 3.573311084e-43
52.59756685 297.8598835 175.5037644 3.573311084e-43
52.44216213 306.7549674 172.4317427 3.573311084e-43
50.68307241 322.3910117 101.8576589 3.573311084e-43
52.09365735 323.7560958 164.3022067 3.573311084e-43
50.9185062 334.4974939 117.2800589 3.573311084e-43
51.12946744 338.3611575 128.159406 3.573311084e-43
51.39994601 340.1575434 140.7790739 3.573311084e-43
61.8668954 95.31370913 245.2411411 3.573311084e-43
59.91866647 104.2297727 163.5425383 3.573311084e-43
60.90799159 100.6423134 205.425448 3.573311084e-43
61.35768482 99.01165014 224.4631342 3.573311084e-43
62.12216332 96.23952252 256.8272007 3.573311084e-43
59.55163787 106.4864091 148.3941133 3.573311084e-43
60.15144973 105.2371193 174.1767136 3.573311084e-43
59.37969722 108.9613526 141.894371 3.573311084e-43
62.91772576 97.98332384 292.45554 3.573311084e-43
63.07578102 100.1873756 300.3157863 3.573311084e-43
58.81229457 120.2761391 121.7701556 3.573311084e-43
58.66350122 125.4443334 117.4193538 3.573311084e-43
63.40115347 111.9677251 319.5457235 3.573311084e-43
63.47720673 116.3205877 324.7137648 3.573311084e-43
58.17942584 140.1598768 102.3814558 3.573311084e-43
57.97838916 146.4432431 96.20860934 3.573311084e-43
63.62336452 131.5279864 337.5256836 3.573311084e-43
63.61014177 138.9817656 340.0832438 3.573311084e-43
63.58964502 147.3876505 342.722528 3.573311084e-43
63.29933232 156.7719333 333.9392004 3.573311084e-43
63.09829563 163.0552996 327.7663539 3.573311084e-43
57.37330616 188.4437189 87.34824309 3.573311084e-43
60.26787879 184.4276141 212.6171554 3.573311084e-43
62.31464564 179.7828799 300.4356838 3.573311084e-43
57.12928806 203.2145032 82.86279645 3.573311084e-43
57.04794869 208.138098 81.36764757 3.573311084e-43
62.01772157 192.8940524 292.9311364 3.573311084e-43
56.9520613 214.9659042 80.03594658 3.573311084e-43
61.67582817 206.1682911 283.5228203 3.573311084e-43
60.79297762 215.8497581 248.8751684 3.573311084e-43
56.77615982 232.2668729 79.60320903 3.573311084e-43
56.75433779 235.12319 79.84838088 3.573311084e-43
60.28641759 230.6468347 232.8853861 3.573311084e-43
60.01858955 239.9495844 225.0539428 3.573311084e-43
56.59563486 261.6190829 84.04042005 3.573311084e-43
56.52289477 271.1401398 84.85765954 3.573311084e-43
59.32025474 268.4022733 206.4007586 3.573311084e-43
59.09739602 277.5419567 200.4730839 3.573311084e-43
56.50637382 296.1947281 94.67928063 3.573311084e-43
56.53084638 304.4375466 99.2223334 3.573311084e-43
56.63732095 310.5315543 106.4575912 3.573311084e-43
56.78876485 316.4624956 115.5966176 3.573311084e-43
56.87275475 322.6380365 121.8799912 3.573311084e-43
57.92292248 322.5328673 167.8973339 3.573311084e-43
57.24177125 328.7057518 140.6195846 3.573311084e-43
65.70296227 103.1696106 165.2338968 3.573311084e-43
65.47216691 110.4866157 158.1908899 3.573311084e-43
66.01246143 111.3046036 182.2331695 3.573311084e-43
66.29748802 111.1967782 194.6893895 3.573311084e-43
66.57524061 112.0410584 207.2273335 3.573311084e-43
66.85299319 112.8853386 219.7652774 3.573311084e-43
67.57250237 110.2762773 250.2255753 3.573311084e-43
67.09305046 112.9405795 230.3177288 3.573311084e-43
68.03013225 110.4682922 270.3785937 3.573311084e-43
64.54567231 125.8807168 124.0335818 3.573311084e-43
68.50363541 114.3056636 292.7622766 3.573311084e-43
68.60217334 118.576993 298.8822022 3.573311084e-43
68.6782266 122.9298556 304.0502435 3.573311084e-43
68.70203653 128.3978903 307.3962401 3.573311084e-43
68.71857245 134.8180306 310.8239607 3.573311084e-43
68.75759304 141.1566378 315.2035656 3.573311084e-43
68.79661362 147.4952449 319.5831704 3.573311084e-43
68.85811887 153.7523189 324.9146596 3.573311084e-43
63.19397201 182.6230283 88.63098183 3.573311084e-43
63.12123192 192.1440852 89.44822131 3.573311084e-43
63.04849183 201.6651421 90.26546079 3.573311084e-43
62.97575174 211.186199 91.08270028 3.573311084e-43
62.91028566 219.7551502 91.81821581 3.573311084e-43
62.8593676 226.41989 92.39028345 3.573311084e-43
66.30018348 216.7200996 239.2256391 3.573311084e-43
67.36489922 214.710719 285.0795339 3.573311084e-43
67.30538188 216.7779967 283.3392132 3.573311084e-43
67.15592589 219.1714071 277.7913552 3.573311084e-43
65.94307943 229.1237658 228.7837148 3.573311084e-43
62.67751737 250.2225322 94.43338216 3.573311084e-43
65.55754198 248.1106387 219.8657424 3.573311084e-43
65.34989392 258.1208946 214.971676 3.573311084e-43
62.57899442 277.4259314 101.5627982 3.573311084e-43
62.60346698 285.6687499 106.105851 3.573311084e-43
64.5159885 284.2879986 189.4101297 3.573311084e-43
64.33016247 291.4419375 184.2708915 3.573311084e-43
64.05439778 298.9220089 175.324116 3.573311084e-43
62.99100731 306.4809573 131.8643335 3.573311084e-43
63.23900122 308.3588764 143.5321171 3.573311084e-43
63.63645112 307.8433851 160.7477586 3.573311084e-43
71.27961001 112.1197043 162.0311889 3.573311084e-43
71.47536059 115.1127954 171.8769278 3.573311084e-43
71.7980825 115.7940093 186.3186403 3.573311084e-43
70.52439343 122.2640779 133.1765668 3.573311084e-43
70.35311541 127.5138053 127.8738807 3.573311084e-43
70.22680672 132.6004665 124.4749632 3.573311084e-43
72.43162884 130.159784 220.153738 3.573311084e-43
69.75727936 145.4117985 109.2736173 3.573311084e-43
69.601212 151.5320985 105.0045395 3.573311084e-43
69.4980506 159.3120103 103.7545624 3.573311084e-43
72.44486656 154.1807335 230.8455194 3.573311084e-43
73.02946776 152.0608712 255.5945115 3.573311084e-43
72.27292591 156.655677 224.3457771 3.573311084e-43
69.2613065 173.130689 99.18739183 3.573311084e-43
73.26490156 164.1673533 271.0169114 3.573311084e-43
69.0992904 185.7526624 97.39415023 3.573311084e-43
73.62003268 174.914064 291.117009 3.573311084e-43
73.68947457 182.9938162 297.5638304 3.573311084e-43
68.89495551 209.6368378 98.48536462 3.573311084e-43
68.91942808 217.8796563 103.0284174 3.573311084e-43
73.35816835 209.1898688 294.0590711 3.573311084e-43
72.59567776 220.2863481 265.286173 3.573311084e-43
72.46870643 222.5982253 260.6901994 3.573311084e-43
72.31925044 224.9916357 255.1423414 3.573311084e-43
71.97536914 229.9415228 242.1428568 3.573311084e-43
68.85926307 248.6468788 113.3403822 3.573311084e-43
71.39341848 243.1605207 222.1820894 3.573311084e-43
70.95959853 248.4365404 205.3750676 3.573311084e-43
70.73673982 257.5762238 199.4473929 3.573311084e-43
68.9545028 270.5190173 126.7243687 3.573311084e-43
70.20703248 269.6800496 181.3086702 3.573311084e-43
70.04302847 273.9776714 175.9242601 3.573311084e-43
69.40684657 279.9874896 150.5502795 3.573311084e-43
76.46013312 127.1348571 144.0069518 3.573311084e-43
76.7306117 128.931243 156.6266196 3.573311084e-43
77.00109027 130.7276289 169.2462875 3.573311084e-43
77.24181018 133.5576537 180.995795 3.573311084e-43
77.56453208 134.2388676 195.4375076 3.573311084e-43
77.75300866 138.1840644 205.3649704 3.573311084e-43
77.90445255 144.1150057 214.5039969 3.573311084e-43
75.39543235 160.6189662 111.4023986 3.573311084e-43
77.85552239 159.1040972 218.667233 3.573311084e-43
75.08462289 178.409134 105.2583552 3.573311084e-43
75.03436746 187.8486577 107.027479 3.573311084e-43
74.98411203 197.2881814 108.7966028 3.573311084e-43
74.95634127 206.646172 111.5176109 3.573311084e-43
74.98081383 214.8889905 116.0606637 3.573311084e-43
77.0136953 214.9232516 205.2396961 3.573311084e-43
76.83514328 221.1250848 200.018734 3.573311084e-43
75.18781423 233.5786793 133.0070155 3.573311084e-43
75.44374479 237.2792766 145.7901313 3.573311084e-43
75.84913133 238.5864635 164.1211051 3.573311084e-43
75.6097367 241.3060066 154.7657099 3.573311084e-43
82.07712671 147.9731258 147.577961 3.573311084e-43
81.77887737 155.5347304 137.6793013 3.573311084e-43
82.41704718 157.8492639 166.6444503 3.573311084e-43
82.58370172 164.6507777 176.817085 3.573311084e-43
81.38672855 178.2484929 130.040109 3.573311084e-43
81.31398846 187.7695498 130.8573485 3.573311084e-43
81.35367167 196.8829408 136.4340095 3.573311084e-43
82.29935274 199.0081157 178.8072628 3.573311084e-43
81.7980788 204.5287349 159.1445881 3.573311084e-43
81.67110748 206.8406121 154.5486145 3.573311084e-43
