# .PCD v0.7 - Point Cloud Data file format
VERSION 0.7
FIELDS x y z rgb
SIZE 4 4 4 4
TYPE F F F F
COUNT 1 1 1 1
WIDTH 1099
HEIGHT 1
VIEWPOINT 0 0 0 1 0 0 0
POINTS 1099
DATA ascii
5 228 83 2.341805152e-38
5 237 79 2.341805152e-38
5 247 80 2.341805152e-38
5 256 85 2.341805152e-38
10 221 91 2.341805152e-38
10 231 94 2.341805152e-38
10 241 95 2.341805152e-38
10 251 95 2.341805152e-38
10 261 93 2.341805152e-38
10 271 86 2.341805152e-38
15 208 82 2.341805152e-38
15 218 77 2.341805152e-38
15 227 97 2.341805152e-38
15 237 98 2.341805152e-38
15 247 100 2.341805152e-38
15 257 98 2.341805152e-38
15 267 98 2.341805152e-38
15 277 100 2.341805152e-38
15 286 98 2.341805152e-38
15 293 94 2.341805152e-38
20 200 94 2.341805152e-38
20 210 97 2.341805152e-38
20 220 100 2.341805152e-38
20 230 103 2.341805152e-38
20 240 104 2.341805152e-38
20 250 103 2.341805152e-38
20 255 73 2.341805152e-38
20 260 74 2.341805152e-38
20 263 74 2.341805152e-38
20 273 75 2.341805152e-38
20 283 77 2.341805152e-38
20 292 105 2.341805152e-38
20 301 88 2.341805152e-38
20 306 98 2.341805152e-38
25 193 86 2.341805152e-38
25 201 100 2.341805152e-38
25 211 102 2.341805152e-38
25 221 71 2.341805152e-38
25 231 70 2.341805152e-38
25 241 69 2.341805152e-38
25 249 91 2.341805152e-38
25 253 85 2.341805152e-38
25 258 86 2.341805152e-38
25 262 109 2.341805152e-38
25 268 110 2.341805152e-38
25 278 111 2.341805152e-38
25 288 110 2.341805152e-38
25 298 78 2.341805152e-38
25 306 107 2.341805152e-38
25 314 92 2.341805152e-38
30 180 95 2.341805152e-38
30 188 103 2.341805152e-38
30 196 81 2.341805152e-38
30 206 76 2.341805152e-38
30 215 110 2.341805152e-38
30 225 70 2.341805152e-38
30 235 69 2.341805152e-38
30 245 68 2.341805152e-38
30 252 94 2.341805152e-38
30 257 89 2.341805152e-38
30 261 66 2.341805152e-38
30 271 68 2.341805152e-38
30 281 69 2.341805152e-38
30 291 72 2.341805152e-38
30 300 113 2.341805152e-38
30 310 111 2.341805152e-38
30 317 109 2.341805152e-38
30 323 105 2.341805152e-38
35 173 105 2.341805152e-38
35 181 108 2.341805152e-38
35 191 82 2.341805152e-38
35 200 112 2.341805152e-38
35 210 74 2.341805152e-38
35 220 72 2.341805152e-38
35 229 120 2.341805152e-38
35 239 121 2.341805152e-38
35 249 123 2.341805152e-38
35 259 123 2.341805152e-38
35 269 121 2.341805152e-38
35 279 119 2.341805152e-38
35 289 118 2.341805152e-38
35 299 117 2.341805152e-38
35 309 115 2.341805152e-38
35 318 81 2.341805152e-38
35 325 89 2.341805152e-38
35 330 107 2.341805152e-38
40 165 101 2.341805152e-38
40 172 113 2.341805152e-38
40 181 116 2.341805152e-38
40 191 118 2.341805152e-38
40 201 119 2.341805152e-38
40 211 120 2.341805152e-38
40 221 71 2.341805152e-38
40 231 69 2.341805152e-38
40 241 65 2.341805152e-38
40 251 64 2.341805152e-38
40 261 62 2.341805152e-38
40 271 62 2.341805152e-38
40 281 63 2.341805152e-38
40 291 65 2.341805152e-38
40 301 69 2.341805152e-38
40 311 72 2.341805152e-38
40 320 77 2.341805152e-38
40 327 115 2.341805152e-38
40 334 93 2.341805152e-38
45 149 117 2.341805152e-38
45 156 119 2.341805152e-38
45 164 102 2.341805152e-38
45 172 94 2.341805152e-38
45 180 88 2.341805152e-38
45 189 124 2.341805152e-38
45 199 78 2.341805152e-38
45 209 74 2.341805152e-38
45 219 72 2.341805152e-38
45 228 132 2.341805152e-38
45 238 65 2.341805152e-38
45 248 63 2.341805152e-38
45 258 61 2.341805152e-38
45 268 60 2.341805152e-38
45 278 60 2.341805152e-38
45 288 61 2.341805152e-38
45 298 64 2.341805152e-38
45 308 68 2.341805152e-38
45 318 72 2.341805152e-38
45 327 78 2.341805152e-38
45 334 85 2.341805152e-38
45 340 112 2.341805152e-38
50 144 118 2.341805152e-38
50 149 112 2.341805152e-38
50 157 128 2.341805152e-38
50 166 97 2.341805152e-38
50 173 128 2.341805152e-38
50 182 128 2.341805152e-38
50 192 129 2.341805152e-38
50 202 131 2.341805152e-38
50 212 132 2.341805152e-38
50 222 70 2.341805152e-38
50 232 66 2.341805152e-38
50 242 63 2.341805152e-38
50 252 60 2.341805152e-38
50 262 58 2.341805152e-38
50 272 56 2.341805152e-38
50 282 57 2.341805152e-38
50 292 60 2.341805152e-38
50 302 62 2.341805152e-38
50 312 65 2.341805152e-38
50 322 71 2.341805152e-38
50 331 77 2.341805152e-38
50 338 119 2.341805152e-38
50 345 117 2.341805152e-38
50 349 104 2.341805152e-38
55 140 114 2.341805152e-38
55 147 129 2.341805152e-38
55 155 103 2.341805152e-38
55 165 97 2.341805152e-38
55 174 135 2.341805152e-38
55 183 136 2.341805152e-38
55 193 81 2.341805152e-38
55 202 76 2.341805152e-38
55 212 72 2.341805152e-38
55 221 142 2.341805152e-38
55 231 144 2.341805152e-38
55 241 145 2.341805152e-38
55 251 58 2.341805152e-38
55 260 56 2.341805152e-38
55 270 55 2.341805152e-38
55 280 55 2.341805152e-38
55 289 140 2.341805152e-38
55 299 134 2.341805152e-38
55 309 62 2.341805152e-38
55 319 65 2.341805152e-38
55 328 126 2.341805152e-38
55 337 78 2.341805152e-38
55 345 85 2.341805152e-38
55 352 95 2.341805152e-38
55 355 107 2.341805152e-38
60 132 136 2.341805152e-38
60 139 134 2.341805152e-38
60 147 131 2.341805152e-38
60 156 102 2.341805152e-38
60 165 96 2.341805152e-38
60 174 92 2.341805152e-38
60 183 85 2.341805152e-38
60 192 143 2.341805152e-38
60 202 76 2.341805152e-38
60 212 71 2.341805152e-38
60 221 150 2.341805152e-38
60 231 151 2.341805152e-38
60 241 153 2.341805152e-38
60 250 155 2.341805152e-38
60 260 155 2.341805152e-38
60 270 152 2.341805152e-38
60 280 150 2.341805152e-38
60 289 146 2.341805152e-38
60 299 141 2.341805152e-38
60 309 136 2.341805152e-38
60 319 62 2.341805152e-38
60 329 67 2.341805152e-38
60 337 128 2.341805152e-38
60 346 80 2.341805152e-38
60 352 123 2.341805152e-38
60 358 99 2.341805152e-38
65 118 158 2.341805152e-38
65 121 148 2.341805152e-38
65 126 142 2.341805152e-38
65 128 159 2.341805152e-38
65 131 145 2.341805152e-38
65 140 109 2.341805152e-38
65 148 135 2.341805152e-38
65 158 136 2.341805152e-38
65 166 137 2.341805152e-38
65 175 141 2.341805152e-38
65 185 85 2.341805152e-38
65 194 149 2.341805152e-38
65 203 151 2.341805152e-38
65 213 69 2.341805152e-38
65 223 63 2.341805152e-38
65 233 60 2.341805152e-38
65 243 56 2.341805152e-38
65 251 163 2.341805152e-38
65 261 50 2.341805152e-38
65 270 162 2.341805152e-38
65 280 49 2.341805152e-38
65 289 154 2.341805152e-38
65 297 149 2.341805152e-38
65 307 55 2.341805152e-38
65 316 57 2.341805152e-38
65 326 62 2.341805152e-38
65 335 66 2.341805152e-38
65 343 73 2.341805152e-38
65 351 80 2.341805152e-38
65 357 124 2.341805152e-38
65 362 115 2.341805152e-38
70 112 170 2.341805152e-38
70 116 175 2.341805152e-38
70 119 153 2.341805152e-38
70 123 135 2.341805152e-38
70 127 124 2.341805152e-38
70 128 172 2.341805152e-38
70 132 165 2.341805152e-38
70 141 111 2.341805152e-38
70 151 108 2.341805152e-38
70 160 103 2.341805152e-38
70 168 136 2.341805152e-38
70 177 90 2.341805152e-38
70 186 84 2.341805152e-38
70 194 149 2.341805152e-38
70 203 74 2.341805152e-38
70 211 158 2.341805152e-38
70 220 63 2.341805152e-38
70 229 166 2.341805152e-38
70 239 168 2.341805152e-38
70 249 172 2.341805152e-38
70 258 175 2.341805152e-38
70 268 173 2.341805152e-38
70 278 46 2.341805152e-38
70 286 163 2.341805152e-38
70 295 48 2.341805152e-38
70 304 50 2.341805152e-38
70 313 145 2.341805152e-38
70 323 142 2.341805152e-38
70 330 140 2.341805152e-38
70 338 59 2.341805152e-38
70 345 136 2.341805152e-38
70 352 77 2.341805152e-38
70 359 86 2.341805152e-38
70 364 121 2.341805152e-38
70 368 107 2.341805152e-38
75 111 163 2.341805152e-38
75 113 182 2.341805152e-38
75 119 134 2.341805152e-38
75 124 122 2.341805152e-38
75 127 142 2.341805152e-38
75 129 163 2.341805152e-38
75 132 172 2.341805152e-38
75 141 136 2.341805152e-38
75 151 104 2.341805152e-38
75 160 97 2.341805152e-38
75 169 92 2.341805152e-38
75 178 140 2.341805152e-38
75 187 143 2.341805152e-38
75 196 78 2.341805152e-38
75 204 71 2.341805152e-38
75 211 157 2.341805152e-38
75 219 162 2.341805152e-38
75 227 56 2.341805152e-38
75 236 172 2.341805152e-38
75 244 179 2.341805152e-38
75 253 184 2.341805152e-38
75 263 183 2.341805152e-38
75 273 46 2.341805152e-38
75 282 43 2.341805152e-38
75 289 167 2.341805152e-38
75 298 159 2.341805152e-38
75 308 43 2.341805152e-38
75 317 149 2.341805152e-38
75 327 145 2.341805152e-38
75 337 144 2.341805152e-38
75 345 59 2.341805152e-38
75 351 137 2.341805152e-38
75 358 80 2.341805152e-38
75 364 88 2.341805152e-38
75 369 100 2.341805152e-38
75 371 112 2.341805152e-38
80 109 165 2.341805152e-38
80 111 153 2.341805152e-38
80 115 187 2.341805152e-38
80 120 122 2.341805152e-38
80 126 144 2.341805152e-38
80 128 113 2.341805152e-38
80 130 163 2.341805152e-38
80 133 172 2.341805152e-38
80 142 134 2.341805152e-38
80 151 133 2.341805152e-38
80 159 135 2.341805152e-38
80 169 86 2.341805152e-38
80 178 139 2.341805152e-38
80 188 144 2.341805152e-38
80 198 73 2.341805152e-38
80 206 150 2.341805152e-38
80 215 62 2.341805152e-38
80 223 159 2.341805152e-38
80 230 166 2.341805152e-38
80 238 173 2.341805152e-38
80 243 187 2.341805152e-38
80 253 43 2.341805152e-38
80 263 43 2.341805152e-38
80 272 186 2.341805152e-38
80 281 42 2.341805152e-38
80 289 42 2.341805152e-38
80 297 42 2.341805152e-38
80 306 160 2.341805152e-38
80 316 46 2.341805152e-38
80 325 47 2.341805152e-38
80 335 48 2.341805152e-38
80 345 53 2.341805152e-38
80 352 62 2.341805152e-38
80 358 140 2.341805152e-38
80 364 82 2.341805152e-38
80 369 130 2.341805152e-38
80 374 99 2.341805152e-38
80 375 112 2.341805152e-38
85 105 185 2.341805152e-38
85 107 173 2.341805152e-38
85 111 190 2.341805152e-38
85 118 189 2.341805152e-38
85 124 186 2.341805152e-38
85 127 183 2.341805152e-38
85 130 179 2.341805152e-38
85 133 166 2.341805152e-38
85 136 134 2.341805152e-38
85 145 131 2.341805152e-38
85 154 132 2.341805152e-38
85 162 85 2.341805152e-38
85 171 135 2.341805152e-38
85 181 140 2.341805152e-38
85 190 147 2.341805152e-38
85 200 149 2.341805152e-38
85 209 148 2.341805152e-38
85 218 150 2.341805152e-38
85 227 51 2.341805152e-38
85 235 158 2.341805152e-38
85 240 180 2.341805152e-38
85 242 173 2.341805152e-38
85 249 195 2.341805152e-38
85 259 194 2.341805152e-38
85 269 189 2.341805152e-38
85 278 41 2.341805152e-38
85 286 176 2.341805152e-38
85 294 172 2.341805152e-38
85 304 44 2.341805152e-38
85 313 163 2.341805152e-38
85 323 159 2.341805152e-38
85 333 157 2.341805152e-38
85 343 154 2.341805152e-38
85 352 57 2.341805152e-38
85 360 65 2.341805152e-38
85 364 143 2.341805152e-38
85 370 137 2.341805152e-38
85 375 127 2.341805152e-38
85 377 105 2.341805152e-38
90 103 170 2.341805152e-38
90 103 190 2.341805152e-38
90 105 224 2.341805152e-38
90 108 194 2.341805152e-38
90 111 229 2.341805152e-38
90 115 130 2.341805152e-38
90 119 122 2.341805152e-38
90 125 188 2.341805152e-38
90 128 154 2.341805152e-38
90 131 161 2.341805152e-38
90 134 137 2.341805152e-38
90 137 100 2.341805152e-38
90 142 96 2.341805152e-38
90 151 89 2.341805152e-38
90 159 85 2.341805152e-38
90 168 78 2.341805152e-38
90 178 73 2.341805152e-38
90 185 147 2.341805152e-38
90 195 148 2.341805152e-38
90 204 149 2.341805152e-38
90 214 57 2.341805152e-38
90 222 53 2.341805152e-38
90 231 47 2.341805152e-38
90 239 158 2.341805152e-38
90 242 186 2.341805152e-38
90 244 165 2.341805152e-38
90 250 196 2.341805152e-38
90 260 194 2.341805152e-38
90 270 35 2.341805152e-38
90 280 38 2.341805152e-38
90 289 41 2.341805152e-38
90 298 43 2.341805152e-38
90 307 46 2.341805152e-38
90 317 47 2.341805152e-38
90 327 48 2.341805152e-38
90 336 162 2.341805152e-38
90 345 159 2.341805152e-38
90 354 57 2.341805152e-38
90 361 66 2.341805152e-38
90 367 77 2.341805152e-38
90 371 140 2.341805152e-38
90 376 134 2.341805152e-38
90 378 109 2.341805152e-38
95 100 237 2.341805152e-38
95 101 232 2.341805152e-38
95 102 165 2.341805152e-38
95 102 226 2.341805152e-38
95 103 222 2.341805152e-38
95 106 248 2.341805152e-38
95 110 209 2.341805152e-38
95 113 209 2.341805152e-38
95 116 234 2.341805152e-38
95 119 117 2.341805152e-38
95 122 197 2.341805152e-38
95 127 191 2.341805152e-38
95 131 189 2.341805152e-38
95 134 139 2.341805152e-38
95 137 169 2.341805152e-38
95 142 135 2.341805152e-38
95 145 186 2.341805152e-38
95 149 181 2.341805152e-38
95 159 81 2.341805152e-38
95 167 76 2.341805152e-38
95 175 140 2.341805152e-38
95 184 66 2.341805152e-38
95 192 61 2.341805152e-38
95 201 150 2.341805152e-38
95 211 150 2.341805152e-38
95 220 149 2.341805152e-38
95 228 145 2.341805152e-38
95 237 148 2.341805152e-38
95 239 191 2.341805152e-38
95 242 176 2.341805152e-38
95 243 174 2.341805152e-38
95 249 197 2.341805152e-38
95 259 192 2.341805152e-38
95 269 34 2.341805152e-38
95 278 187 2.341805152e-38
95 287 37 2.341805152e-38
95 294 174 2.341805152e-38
95 304 43 2.341805152e-38
95 314 47 2.341805152e-38
95 324 49 2.341805152e-38
95 334 52 2.341805152e-38
95 344 55 2.341805152e-38
95 353 160 2.341805152e-38
95 360 66 2.341805152e-38
95 365 76 2.341805152e-38
95 371 82 2.341805152e-38
95 376 93 2.341805152e-38
95 378 104 2.341805152e-38
95 379 125 2.341805152e-38
100 100 152 2.341805152e-38
100 100 230 2.341805152e-38
100 101 174 2.341805152e-38
100 101 220 2.341805152e-38
100 102 219 2.341805152e-38
100 104 208 2.341805152e-38
100 108 259 2.341805152e-38
100 111 252 2.341805152e-38
100 115 119 2.341805152e-38
100 118 199 2.341805152e-38
100 121 110 2.341805152e-38
100 124 215 2.341805152e-38
100 126 104 2.341805152e-38
100 134 97 2.341805152e-38
100 136 161 2.341805152e-38
100 140 144 2.341805152e-38
100 143 200 2.341805152e-38
100 148 86 2.341805152e-38
100 152 199 2.341805152e-38
100 157 140 2.341805152e-38
100 162 78 2.341805152e-38
100 165 199 2.341805152e-38
100 170 71 2.341805152e-38
100 174 69 2.341805152e-38
100 177 189 2.341805152e-38
100 182 149 2.341805152e-38
100 191 153 2.341805152e-38
100 201 52 2.341805152e-38
100 211 53 2.341805152e-38
100 220 50 2.341805152e-38
100 228 48 2.341805152e-38
100 235 198 2.341805152e-38
100 237 191 2.341805152e-38
100 240 159 2.341805152e-38
100 242 174 2.341805152e-38
100 247 40 2.341805152e-38
100 255 193 2.341805152e-38
100 265 192 2.341805152e-38
100 275 189 2.341805152e-38
100 285 184 2.341805152e-38
100 294 178 2.341805152e-38
100 304 39 2.341805152e-38
100 312 179 2.341805152e-38
100 321 48 2.341805152e-38
100 331 52 2.341805152e-38
100 341 55 2.341805152e-38
100 350 166 2.341805152e-38
100 357 163 2.341805152e-38
100 363 158 2.341805152e-38
100 368 151 2.341805152e-38
100 373 90 2.341805152e-38
100 376 133 2.341805152e-38
100 377 124 2.341805152e-38
105 98 158 2.341805152e-38
105 98 193 2.341805152e-38
105 99 195 2.341805152e-38
105 100 223 2.341805152e-38
105 101 205 2.341805152e-38
105 101 258 2.341805152e-38
105 103 265 2.341805152e-38
105 108 268 2.341805152e-38
105 112 267 2.341805152e-38
105 116 197 2.341805152e-38
105 119 198 2.341805152e-38
105 121 208 2.341805152e-38
105 125 104 2.341805152e-38
105 128 209 2.341805152e-38
105 130 222 2.341805152e-38
105 134 94 2.341805152e-38
105 140 220 2.341805152e-38
105 148 80 2.341805152e-38
105 152 162 2.341805152e-38
105 157 151 2.341805152e-38
105 161 168 2.341805152e-38
105 166 72 2.341805152e-38
105 170 174 2.341805152e-38
105 173 209 2.341805152e-38
105 177 64 2.341805152e-38
105 181 158 2.341805152e-38
105 185 200 2.341805152e-38
105 190 56 2.341805152e-38
105 193 55 2.341805152e-38
105 202 50 2.341805152e-38
105 211 165 2.341805152e-38
105 220 156 2.341805152e-38
105 228 149 2.341805152e-38
105 232 218 2.341805152e-38
105 234 218 2.341805152e-38
105 236 190 2.341805152e-38
105 238 181 2.341805152e-38
105 241 169 2.341805152e-38
105 245 41 2.341805152e-38
105 252 197 2.341805152e-38
105 262 192 2.341805152e-38
105 272 35 2.341805152e-38
105 280 186 2.341805152e-38
105 290 182 2.341805152e-38
105 300 181 2.341805152e-38
105 309 180 2.341805152e-38
105 318 176 2.341805152e-38
105 328 49 2.341805152e-38
105 337 55 2.341805152e-38
105 346 61 2.341805152e-38
105 354 66 2.341805152e-38
105 360 160 2.341805152e-38
105 364 157 2.341805152e-38
105 370 90 2.341805152e-38
105 373 100 2.341805152e-38
105 375 112 2.341805152e-38
110 97 167 2.341805152e-38
110 97 187 2.341805152e-38
110 98 229 2.341805152e-38
110 100 151 2.341805152e-38
110 100 211 2.341805152e-38
110 100 256 2.341805152e-38
110 102 142 2.341805152e-38
110 106 130 2.341805152e-38
110 113 117 2.341805152e-38
110 119 268 2.341805152e-38
110 125 256 2.341805152e-38
110 127 248 2.341805152e-38
110 132 95 2.341805152e-38
110 136 89 2.341805152e-38
110 142 84 2.341805152e-38
110 150 78 2.341805152e-38
110 159 226 2.341805152e-38
110 169 70 2.341805152e-38
110 177 223 2.341805152e-38
110 183 59 2.341805152e-38
110 187 205 2.341805152e-38
110 191 203 2.341805152e-38
110 196 198 2.341805152e-38
110 199 175 2.341805152e-38
110 202 50 2.341805152e-38
110 205 50 2.341805152e-38
110 208 169 2.341805152e-38
110 213 47 2.341805152e-38
110 218 46 2.341805152e-38
110 221 218 2.341805152e-38
110 224 253 2.341805152e-38
110 228 213 2.341805152e-38
110 229 151 2.341805152e-38
110 230 229 2.341805152e-38
110 233 192 2.341805152e-38
110 235 160 2.341805152e-38
110 236 217 2.341805152e-38
110 237 180 2.341805152e-38
110 239 164 2.341805152e-38
110 242 43 2.341805152e-38
110 245 237 2.341805152e-38
110 252 197 2.341805152e-38
110 261 39 2.341805152e-38
110 271 37 2.341805152e-38
110 281 35 2.341805152e-38
110 290 186 2.341805152e-38
110 300 34 2.341805152e-38
110 308 183 2.341805152e-38
110 318 45 2.341805152e-38
110 327 49 2.341805152e-38
110 336 175 2.341805152e-38
110 345 62 2.341805152e-38
110 352 167 2.341805152e-38
110 358 162 2.341805152e-38
110 363 156 2.341805152e-38
110 365 148 2.341805152e-38
110 369 102 2.341805152e-38
110 370 114 2.341805152e-38
115 97 172 2.341805152e-38
115 98 158 2.341805152e-38
115 98 215 2.341805152e-38
115 98 236 2.341805152e-38
115 98 270 2.341805152e-38
115 100 203 2.341805152e-38
115 100 262 2.341805152e-38
115 103 276 2.341805152e-38
115 109 275 2.341805152e-38
115 116 271 2.341805152e-38
115 124 101 2.341805152e-38
115 129 260 2.341805152e-38
115 134 251 2.341805152e-38
115 141 87 2.341805152e-38
115 147 80 2.341805152e-38
115 155 242 2.341805152e-38
115 164 243 2.341805152e-38
115 174 66 2.341805152e-38
115 183 61 2.341805152e-38
115 190 250 2.341805152e-38
115 195 204 2.341805152e-38
115 197 201 2.341805152e-38
115 200 186 2.341805152e-38
115 204 186 2.341805152e-38
115 207 253 2.341805152e-38
115 212 49 2.341805152e-38
115 216 206 2.341805152e-38
115 220 203 2.341805152e-38
115 224 46 2.341805152e-38
115 228 195 2.341805152e-38
115 231 182 2.341805152e-38
115 236 224 2.341805152e-38
115 238 220 2.341805152e-38
115 241 229 2.341805152e-38
115 245 232 2.341805152e-38
115 249 42 2.341805152e-38
115 258 191 2.341805152e-38
115 267 188 2.341805152e-38
115 277 189 2.341805152e-38
115 287 40 2.341805152e-38
115 296 187 2.341805152e-38
115 306 41 2.341805152e-38
115 315 186 2.341805152e-38
115 324 50 2.341805152e-38
115 332 176 2.341805152e-38
115 341 62 2.341805152e-38
115 348 69 2.341805152e-38
115 354 79 2.341805152e-38
115 359 155 2.341805152e-38
115 362 95 2.341805152e-38
115 364 117 2.341805152e-38
115 364 137 2.341805152e-38
120 97 180 2.341805152e-38
120 98 151 2.341805152e-38
120 98 171 2.341805152e-38
120 98 213 2.341805152e-38
120 98 233 2.341805152e-38
120 98 267 2.341805152e-38
120 100 252 2.341805152e-38
120 103 138 2.341805152e-38
120 110 121 2.341805152e-38
120 117 115 2.341805152e-38
120 124 105 2.341805152e-38
120 130 268 2.341805152e-38
120 136 261 2.341805152e-38
120 145 81 2.341805152e-38
120 150 208 2.341805152e-38
120 158 257 2.341805152e-38
120 168 257 2.341805152e-38
120 178 64 2.341805152e-38
120 187 260 2.341805152e-38
120 191 261 2.341805152e-38
120 195 203 2.341805152e-38
120 198 221 2.341805152e-38
120 203 55 2.341805152e-38
120 206 53 2.341805152e-38
120 209 201 2.341805152e-38
120 213 51 2.341805152e-38
120 223 48 2.341805152e-38
120 233 47 2.341805152e-38
120 238 225 2.341805152e-38
120 241 209 2.341805152e-38
120 245 45 2.341805152e-38
120 246 237 2.341805152e-38
120 254 194 2.341805152e-38
120 264 43 2.341805152e-38
120 274 42 2.341805152e-38
120 282 192 2.341805152e-38
120 292 191 2.341805152e-38
120 302 189 2.341805152e-38
120 312 186 2.341805152e-38
120 321 181 2.341805152e-38
120 330 58 2.341805152e-38
120 338 65 2.341805152e-38
120 345 73 2.341805152e-38
120 349 164 2.341805152e-38
120 354 151 2.341805152e-38
120 357 141 2.341805152e-38
120 360 107 2.341805152e-38
120 360 127 2.341805152e-38
125 97 179 2.341805152e-38
125 98 165 2.341805152e-38
125 98 196 2.341805152e-38
125 98 227 2.341805152e-38
125 99 209 2.341805152e-38
125 100 240 2.341805152e-38
125 100 260 2.341805152e-38
125 104 136 2.341805152e-38
125 110 281 2.341805152e-38
125 118 277 2.341805152e-38
125 126 107 2.341805152e-38
125 133 95 2.341805152e-38
125 139 88 2.341805152e-38
125 147 128 2.341805152e-38
125 150 134 2.341805152e-38
125 152 266 2.341805152e-38
125 157 75 2.341805152e-38
125 161 74 2.341805152e-38
125 165 266 2.341805152e-38
125 170 71 2.341805152e-38
125 174 267 2.341805152e-38
125 179 212 2.341805152e-38
125 184 206 2.341805152e-38
125 189 206 2.341805152e-38
125 194 204 2.341805152e-38
125 198 204 2.341805152e-38
125 201 270 2.341805152e-38
125 204 58 2.341805152e-38
125 214 55 2.341805152e-38
125 221 259 2.341805152e-38
125 231 257 2.341805152e-38
125 238 215 2.341805152e-38
125 240 250 2.341805152e-38
125 244 228 2.341805152e-38
125 248 228 2.341805152e-38
125 252 241 2.341805152e-38
125 257 191 2.341805152e-38
125 260 189 2.341805152e-38
125 264 187 2.341805152e-38
125 269 186 2.341805152e-38
125 274 47 2.341805152e-38
125 281 48 2.341805152e-38
125 291 47 2.341805152e-38
125 301 48 2.341805152e-38
125 311 52 2.341805152e-38
125 320 57 2.341805152e-38
125 327 63 2.341805152e-38
125 333 69 2.341805152e-38
125 339 76 2.341805152e-38
125 344 157 2.341805152e-38
125 348 93 2.341805152e-38
125 351 140 2.341805152e-38
125 353 114 2.341805152e-38
130 96 280 2.341805152e-38
130 98 173 2.341805152e-38
130 99 187 2.341805152e-38
130 100 194 2.341805152e-38
130 100 222 2.341805152e-38
130 101 143 2.341805152e-38
130 101 205 2.341805152e-38
130 101 253 2.341805152e-38
130 106 134 2.341805152e-38
130 112 283 2.341805152e-38
130 121 113 2.341805152e-38
130 129 108 2.341805152e-38
130 136 98 2.341805152e-38
130 142 127 2.341805152e-38
130 145 124 2.341805152e-38
130 149 136 2.341805152e-38
130 153 273 2.341805152e-38
130 160 273 2.341805152e-38
130 170 73 2.341805152e-38
130 177 211 2.341805152e-38
130 182 69 2.341805152e-38
130 186 209 2.341805152e-38
130 191 66 2.341805152e-38
130 195 275 2.341805152e-38
130 200 207 2.341805152e-38
130 204 222 2.341805152e-38
130 207 275 2.341805152e-38
130 217 272 2.341805152e-38
130 222 263 2.341805152e-38
130 229 55 2.341805152e-38
130 237 252 2.341805152e-38
130 242 219 2.341805152e-38
130 245 222 2.341805152e-38
130 250 53 2.341805152e-38
130 254 191 2.341805152e-38
130 257 190 2.341805152e-38
130 260 230 2.341805152e-38
130 263 187 2.341805152e-38
130 272 192 2.341805152e-38
130 280 196 2.341805152e-38
130 290 192 2.341805152e-38
130 299 187 2.341805152e-38
130 308 58 2.341805152e-38
130 315 64 2.341805152e-38
130 321 171 2.341805152e-38
130 328 164 2.341805152e-38
130 333 156 2.341805152e-38
130 338 90 2.341805152e-38
130 341 98 2.341805152e-38
130 343 106 2.341805152e-38
130 344 120 2.341805152e-38
135 98 277 2.341805152e-38
135 101 140 2.341805152e-38
135 101 191 2.341805152e-38
135 101 257 2.341805152e-38
135 102 161 2.341805152e-38
135 102 201 2.341805152e-38
135 102 221 2.341805152e-38
135 102 293 2.341805152e-38
135 111 130 2.341805152e-38
135 118 118 2.341805152e-38
135 126 112 2.341805152e-38
135 134 104 2.341805152e-38
135 141 286 2.341805152e-38
135 148 284 2.341805152e-38
135 156 80 2.341805152e-38
135 166 77 2.341805152e-38
135 176 74 2.341805152e-38
135 184 71 2.341805152e-38
135 194 69 2.341805152e-38
135 203 218 2.341805152e-38
135 206 280 2.341805152e-38
135 209 280 2.341805152e-38
135 219 278 2.341805152e-38
135 225 255 2.341805152e-38
135 227 266 2.341805152e-38
135 235 251 2.341805152e-38
135 242 208 2.341805152e-38
135 245 202 2.341805152e-38
135 249 220 2.341805152e-38
135 253 192 2.341805152e-38
135 256 58 2.341805152e-38
135 260 236 2.341805152e-38
135 264 228 2.341805152e-38
135 272 58 2.341805152e-38
135 281 193 2.341805152e-38
135 289 187 2.341805152e-38
135 298 63 2.341805152e-38
135 304 69 2.341805152e-38
135 312 72 2.341805152e-38
135 318 158 2.341805152e-38
135 323 153 2.341805152e-38
135 328 143 2.341805152e-38
135 331 133 2.341805152e-38
135 333 112 2.341805152e-38
140 100 279 2.341805152e-38
140 101 297 2.341805152e-38
140 103 143 2.341805152e-38
140 103 243 2.341805152e-38
140 104 162 2.341805152e-38
140 104 212 2.341805152e-38
140 105 152 2.341805152e-38
140 105 192 2.341805152e-38
140 106 298 2.341805152e-38
140 116 131 2.341805152e-38
140 120 290 2.341805152e-38
140 128 111 2.341805152e-38
140 136 103 2.341805152e-38
140 144 96 2.341805152e-38
140 151 90 2.341805152e-38
140 158 291 2.341805152e-38
140 168 79 2.341805152e-38
140 178 77 2.341805152e-38
140 188 74 2.341805152e-38
140 197 72 2.341805152e-38
140 206 71 2.341805152e-38
140 211 70 2.341805152e-38
140 221 69 2.341805152e-38
140 228 251 2.341805152e-38
140 229 280 2.341805152e-38
140 233 249 2.341805152e-38
140 240 210 2.341805152e-38
140 244 202 2.341805152e-38
140 248 196 2.341805152e-38
140 252 66 2.341805152e-38
140 255 218 2.341805152e-38
140 258 66 2.341805152e-38
140 265 196 2.341805152e-38
140 274 66 2.341805152e-38
140 281 183 2.341805152e-38
140 289 179 2.341805152e-38
140 297 74 2.341805152e-38
140 302 164 2.341805152e-38
140 308 86 2.341805152e-38
140 314 92 2.341805152e-38
140 318 98 2.341805152e-38
140 321 111 2.341805152e-38
145 102 272 2.341805152e-38
145 102 292 2.341805152e-38
145 103 270 2.341805152e-38
145 105 237 2.341805152e-38
145 107 170 2.341805152e-38
145 108 166 2.341805152e-38
145 108 215 2.341805152e-38
145 109 305 2.341805152e-38
145 110 199 2.341805152e-38
145 113 305 2.341805152e-38
145 122 300 2.341805152e-38
145 127 117 2.341805152e-38
145 135 300 2.341805152e-38
145 143 103 2.341805152e-38
145 150 98 2.341805152e-38
145 158 91 2.341805152e-38
145 166 304 2.341805152e-38
145 175 299 2.341805152e-38
145 185 296 2.341805152e-38
145 195 296 2.341805152e-38
145 205 296 2.341805152e-38
145 214 293 2.341805152e-38
145 224 291 2.341805152e-38
145 229 74 2.341805152e-38
145 231 286 2.341805152e-38
145 234 276 2.341805152e-38
145 237 217 2.341805152e-38
145 241 203 2.341805152e-38
145 245 197 2.341805152e-38
145 248 238 2.341805152e-38
145 252 219 2.341805152e-38
145 257 76 2.341805152e-38
145 265 193 2.341805152e-38
145 273 79 2.341805152e-38
145 279 81 2.341805152e-38
145 286 168 2.341805152e-38
145 293 161 2.341805152e-38
145 300 96 2.341805152e-38
145 305 104 2.341805152e-38
145 307 116 2.341805152e-38
150 104 279 2.341805152e-38
150 105 276 2.341805152e-38
150 108 245 2.341805152e-38
150 110 235 2.341805152e-38
150 112 220 2.341805152e-38
150 115 307 2.341805152e-38
150 118 178 2.341805152e-38
150 119 163 2.341805152e-38
150 120 148 2.341805152e-38
150 123 194 2.341805152e-38
150 128 126 2.341805152e-38
150 132 309 2.341805152e-38
150 140 310 2.341805152e-38
150 149 106 2.341805152e-38
150 157 100 2.341805152e-38
150 166 93 2.341805152e-38
150 172 313 2.341805152e-38
150 176 207 2.341805152e-38
150 181 196 2.341805152e-38
150 185 88 2.341805152e-38
150 191 305 2.341805152e-38
150 201 302 2.341805152e-38
150 211 302 2.341805152e-38
150 220 300 2.341805152e-38
150 227 245 2.341805152e-38
150 230 243 2.341805152e-38
150 234 242 2.341805152e-38
150 236 210 2.341805152e-38
150 237 291 2.341805152e-38
150 239 238 2.341805152e-38
150 243 195 2.341805152e-38
150 246 85 2.341805152e-38
150 251 85 2.341805152e-38
150 260 187 2.341805152e-38
150 266 176 2.341805152e-38
150 272 167 2.341805152e-38
150 278 159 2.341805152e-38
150 284 110 2.341805152e-38
150 289 117 2.341805152e-38
150 291 127 2.341805152e-38
155 113 253 2.341805152e-38
155 115 281 2.341805152e-38
155 119 230 2.341805152e-38
155 123 290 2.341805152e-38
155 127 215 2.341805152e-38
155 129 167 2.341805152e-38
155 130 174 2.341805152e-38
155 133 140 2.341805152e-38
155 134 208 2.341805152e-38
155 137 199 2.341805152e-38
155 142 119 2.341805152e-38
155 147 115 2.341805152e-38
155 155 300 2.341805152e-38
155 161 308 2.341805152e-38
155 169 314 2.341805152e-38
155 179 314 2.341805152e-38
155 189 314 2.341805152e-38
155 199 314 2.341805152e-38
155 209 311 2.341805152e-38
155 218 309 2.341805152e-38
155 220 248 2.341805152e-38
155 222 219 2.341805152e-38
155 224 218 2.341805152e-38
155 226 240 2.341805152e-38
155 230 96 2.341805152e-38
155 233 209 2.341805152e-38
155 236 97 2.341805152e-38
155 238 284 2.341805152e-38
155 244 100 2.341805152e-38
155 251 184 2.341805152e-38
155 257 175 2.341805152e-38
155 262 112 2.341805152e-38
155 267 118 2.341805152e-38
155 270 142 2.341805152e-38
160 136 154 2.341805152e-38
160 141 134 2.341805152e-38
160 142 169 2.341805152e-38
160 145 233 2.341805152e-38
160 146 265 2.341805152e-38
160 147 278 2.341805152e-38
160 148 271 2.341805152e-38
160 151 197 2.341805152e-38
160 153 223 2.341805152e-38
160 156 191 2.341805152e-38
160 158 210 2.341805152e-38
160 159 206 2.341805152e-38
160 162 227 2.341805152e-38
160 167 217 2.341805152e-38
160 172 109 2.341805152e-38
160 176 214 2.341805152e-38
160 180 105 2.341805152e-38
160 186 296 2.341805152e-38
160 191 280 2.341805152e-38
160 195 298 2.341805152e-38
160 198 264 2.341805152e-38
160 200 281 2.341805152e-38
160 203 245 2.341805152e-38
160 204 270 2.341805152e-38
160 207 284 2.341805152e-38
160 216 237 2.341805152e-38
160 220 110 2.341805152e-38
160 225 214 2.341805152e-38
160 231 119 2.341805152e-38
160 237 124 2.341805152e-38
160 243 129 2.341805152e-38
160 246 136 2.341805152e-38
160 246 171 2.341805152e-38
165 148 137 2.341805152e-38
165 149 153 2.341805152e-38
165 155 167 2.341805152e-38
165 164 127 2.341805152e-38
165 170 183 2.341805152e-38
165 175 196 2.341805152e-38
165 182 204 2.341805152e-38
165 191 209 2.341805152e-38
165 200 124 2.341805152e-38
165 210 128 2.341805152e-38
165 218 214 2.341805152e-38
165 223 141 2.341805152e-38
165 228 151 2.341805152e-38
165 230 167 2.341805152e-38
165 235 177 2.341805152e-38
170 166 144 2.341805152e-38
170 168 166 2.341805152e-38
170 176 170 2.341805152e-38
170 186 172 2.341805152e-38
170 196 141 2.341805152e-38
170 201 147 2.341805152e-38
170 205 162 2.341805152e-38
