# .PCD v0.7 - Point Cloud Data file format
VERSION 0.7
FIELDS x y z rgb
SIZE 4 4 4 4
TYPE F F F F
COUNT 1 1 1 1
WIDTH 473
HEIGHT 1
VIEWPOINT 0 0 0 1 0 0 0
POINTS 473
DATA ascii
0 193 77 2.341805152e-38
0 199 71 2.341805152e-38
0 207 85 2.341805152e-38
0 216 83 2.341805152e-38
0 226 65 2.341805152e-38
0 235 65 2.341805152e-38
0 241 68 2.341805152e-38
6 169 97 2.341805152e-38
6 176 76 2.341805152e-38
6 185 73 2.341805152e-38
6 194 101 2.341805152e-38
6 203 103 2.341805152e-38
6 212 62 2.341805152e-38
6 221 59 2.341805152e-38
6 230 57 2.341805152e-38
6 238 99 2.341805152e-38
6 247 56 2.341805152e-38
6 255 91 2.341805152e-38
6 262 63 2.341805152e-38
6 267 81 2.341805152e-38
12 157 99 2.341805152e-38
12 164 87 2.341805152e-38
12 169 109 2.341805152e-38
12 177 79 2.341805152e-38
12 185 114 2.341805152e-38
12 194 70 2.341805152e-38
12 203 65 2.341805152e-38
12 212 61 2.341805152e-38
12 221 57 2.341805152e-38
12 230 119 2.341805152e-38
12 239 116 2.341805152e-38
12 247 53 2.341805152e-38
12 255 53 2.341805152e-38
12 262 53 2.341805152e-38
12 269 94 2.341805152e-38
12 276 60 2.341805152e-38
12 282 65 2.341805152e-38
12 287 71 2.341805152e-38
18 123 250 2.341805152e-38
18 123 270 2.341805152e-38
18 125 230 2.341805152e-38
18 126 284 2.341805152e-38
18 130 289 2.341805152e-38
18 137 286 2.341805152e-38
18 141 209 2.341805152e-38
18 141 233 2.341805152e-38
18 143 247 2.341805152e-38
18 143 267 2.341805152e-38
18 152 113 2.341805152e-38
18 160 117 2.341805152e-38
18 169 88 2.341805152e-38
18 176 123 2.341805152e-38
18 184 78 2.341805152e-38
18 193 72 2.341805152e-38
18 202 69 2.341805152e-38
18 211 65 2.341805152e-38
18 220 62 2.341805152e-38
18 228 131 2.341805152e-38
18 237 55 2.341805152e-38
18 246 127 2.341805152e-38
18 255 124 2.341805152e-38
18 263 119 2.341805152e-38
18 270 113 2.341805152e-38
18 277 54 2.341805152e-38
18 284 56 2.341805152e-38
18 289 97 2.341805152e-38
18 295 90 2.341805152e-38
18 300 69 2.341805152e-38
24 117 233 2.341805152e-38
24 117 253 2.341805152e-38
24 119 225 2.341805152e-38
24 119 275 2.341805152e-38
24 121 285 2.341805152e-38
24 124 201 2.341805152e-38
24 127 197 2.341805152e-38
24 131 183 2.341805152e-38
24 140 187 2.341805152e-38
24 146 310 2.341805152e-38
24 151 302 2.341805152e-38
24 153 289 2.341805152e-38
24 155 113 2.341805152e-38
24 155 236 2.341805152e-38
24 155 280 2.341805152e-38
24 157 256 2.341805152e-38
24 160 117 2.341805152e-38
24 169 92 2.341805152e-38
24 177 87 2.341805152e-38
24 184 82 2.341805152e-38
24 191 74 2.341805152e-38
24 199 70 2.341805152e-38
24 208 67 2.341805152e-38
24 217 63 2.341805152e-38
24 226 61 2.341805152e-38
24 235 142 2.341805152e-38
24 244 145 2.341805152e-38
24 254 53 2.341805152e-38
24 263 141 2.341805152e-38
24 271 137 2.341805152e-38
24 278 53 2.341805152e-38
24 284 53 2.341805152e-38
24 290 111 2.341805152e-38
24 297 105 2.341805152e-38
24 305 59 2.341805152e-38
24 311 63 2.341805152e-38
24 316 69 2.341805152e-38
24 319 75 2.341805152e-38
30 115 240 2.341805152e-38
30 115 260 2.341805152e-38
30 116 278 2.341805152e-38
30 118 216 2.341805152e-38
30 121 296 2.341805152e-38
30 124 198 2.341805152e-38
30 126 310 2.341805152e-38
30 130 318 2.341805152e-38
30 135 177 2.341805152e-38
30 138 327 2.341805152e-38
30 142 134 2.341805152e-38
30 146 111 2.341805152e-38
30 149 182 2.341805152e-38
30 153 184 2.341805152e-38
30 157 315 2.341805152e-38
30 159 311 2.341805152e-38
30 161 305 2.341805152e-38
30 163 288 2.341805152e-38
30 165 202 2.341805152e-38
30 165 280 2.341805152e-38
30 167 213 2.341805152e-38
30 167 251 2.341805152e-38
30 169 227 2.341805152e-38
30 172 90 2.341805152e-38
30 180 83 2.341805152e-38
30 187 77 2.341805152e-38
30 196 73 2.341805152e-38
30 205 68 2.341805152e-38
30 213 63 2.341805152e-38
30 219 142 2.341805152e-38
30 229 59 2.341805152e-38
30 238 59 2.341805152e-38
30 243 160 2.341805152e-38
30 251 167 2.341805152e-38
30 261 55 2.341805152e-38
30 269 53 2.341805152e-38
30 275 154 2.341805152e-38
30 282 51 2.341805152e-38
30 288 138 2.341805152e-38
30 295 53 2.341805152e-38
30 301 55 2.341805152e-38
30 307 116 2.341805152e-38
30 314 112 2.341805152e-38
30 321 63 2.341805152e-38
30 328 99 2.341805152e-38
30 333 73 2.341805152e-38
30 336 80 2.341805152e-38
36 115 249 2.341805152e-38
36 115 269 2.341805152e-38
36 116 233 2.341805152e-38
36 117 231 2.341805152e-38
36 119 153 2.341805152e-38
36 120 157 2.341805152e-38
36 121 306 2.341805152e-38
36 123 195 2.341805152e-38
36 126 131 2.341805152e-38
36 128 319 2.341805152e-38
36 131 323 2.341805152e-38
36 134 330 2.341805152e-38
36 138 115 2.341805152e-38
36 141 172 2.341805152e-38
36 145 174 2.341805152e-38
36 149 177 2.341805152e-38
36 153 339 2.341805152e-38
36 160 97 2.341805152e-38
36 165 93 2.341805152e-38
36 168 89 2.341805152e-38
36 171 292 2.341805152e-38
36 173 278 2.341805152e-38
36 175 256 2.341805152e-38
36 179 82 2.341805152e-38
36 181 237 2.341805152e-38
36 184 132 2.341805152e-38
36 186 189 2.341805152e-38
36 189 75 2.341805152e-38
36 191 131 2.341805152e-38
36 195 130 2.341805152e-38
36 199 71 2.341805152e-38
36 202 133 2.341805152e-38
36 203 174 2.341805152e-38
36 209 136 2.341805152e-38
36 218 137 2.341805152e-38
36 227 61 2.341805152e-38
36 234 147 2.341805152e-38
36 240 169 2.341805152e-38
36 242 177 2.341805152e-38
36 249 57 2.341805152e-38
36 258 57 2.341805152e-38
36 267 195 2.341805152e-38
36 277 61 2.341805152e-38
36 284 61 2.341805152e-38
36 287 161 2.341805152e-38
36 292 147 2.341805152e-38
36 299 143 2.341805152e-38
36 307 137 2.341805152e-38
36 317 61 2.341805152e-38
36 326 65 2.341805152e-38
36 335 70 2.341805152e-38
36 344 74 2.341805152e-38
36 349 83 2.341805152e-38
36 353 95 2.341805152e-38
42 115 164 2.341805152e-38
42 117 209 2.341805152e-38
42 117 229 2.341805152e-38
42 117 249 2.341805152e-38
42 117 269 2.341805152e-38
42 117 289 2.341805152e-38
42 119 198 2.341805152e-38
42 120 305 2.341805152e-38
42 122 312 2.341805152e-38
42 125 137 2.341805152e-38
42 128 130 2.341805152e-38
42 131 124 2.341805152e-38
42 134 119 2.341805152e-38
42 137 177 2.341805152e-38
42 140 112 2.341805152e-38
42 143 191 2.341805152e-38
42 147 179 2.341805152e-38
42 152 101 2.341805152e-38
42 156 183 2.341805152e-38
42 161 96 2.341805152e-38
42 165 195 2.341805152e-38
42 169 331 2.341805152e-38
42 171 327 2.341805152e-38
42 174 316 2.341805152e-38
42 177 86 2.341805152e-38
42 178 296 2.341805152e-38
42 181 193 2.341805152e-38
42 183 271 2.341805152e-38
42 185 260 2.341805152e-38
42 189 193 2.341805152e-38
42 193 75 2.341805152e-38
42 197 73 2.341805152e-38
42 200 72 2.341805152e-38
42 203 204 2.341805152e-38
42 207 208 2.341805152e-38
42 209 217 2.341805152e-38
42 213 173 2.341805152e-38
42 215 164 2.341805152e-38
42 221 148 2.341805152e-38
42 225 183 2.341805152e-38
42 226 198 2.341805152e-38
42 228 174 2.341805152e-38
42 232 167 2.341805152e-38
42 236 66 2.341805152e-38
42 240 147 2.341805152e-38
42 244 148 2.341805152e-38
42 247 233 2.341805152e-38
42 257 59 2.341805152e-38
42 263 226 2.341805152e-38
42 267 203 2.341805152e-38
42 273 205 2.341805152e-38
42 281 62 2.341805152e-38
42 290 65 2.341805152e-38
42 297 181 2.341805152e-38
42 303 69 2.341805152e-38
42 313 69 2.341805152e-38
42 323 69 2.341805152e-38
42 331 151 2.341805152e-38
42 340 146 2.341805152e-38
42 348 142 2.341805152e-38
42 355 137 2.341805152e-38
42 361 99 2.341805152e-38
42 365 111 2.341805152e-38
48 118 178 2.341805152e-38
48 119 229 2.341805152e-38
48 119 249 2.341805152e-38
48 119 269 2.341805152e-38
48 119 289 2.341805152e-38
48 121 188 2.341805152e-38
48 121 208 2.341805152e-38
48 121 296 2.341805152e-38
48 123 306 2.341805152e-38
48 127 140 2.341805152e-38
48 131 133 2.341805152e-38
48 135 331 2.341805152e-38
48 140 120 2.341805152e-38
48 144 344 2.341805152e-38
48 149 107 2.341805152e-38
48 156 100 2.341805152e-38
48 163 355 2.341805152e-38
48 172 355 2.341805152e-38
48 180 89 2.341805152e-38
48 183 173 2.341805152e-38
48 187 172 2.341805152e-38
48 187 321 2.341805152e-38
48 188 302 2.341805152e-38
48 192 83 2.341805152e-38
48 196 293 2.341805152e-38
48 200 78 2.341805152e-38
48 204 76 2.341805152e-38
48 208 190 2.341805152e-38
48 211 219 2.341805152e-38
48 214 285 2.341805152e-38
48 217 227 2.341805152e-38
48 220 227 2.341805152e-38
48 221 215 2.341805152e-38
48 224 67 2.341805152e-38
48 227 233 2.341805152e-38
48 231 239 2.341805152e-38
48 234 245 2.341805152e-38
48 237 263 2.341805152e-38
48 242 249 2.341805152e-38
48 252 246 2.341805152e-38
48 261 67 2.341805152e-38
48 269 229 2.341805152e-38
48 279 217 2.341805152e-38
48 285 205 2.341805152e-38
48 295 67 2.341805152e-38
48 304 70 2.341805152e-38
48 311 75 2.341805152e-38
48 319 79 2.341805152e-38
48 328 167 2.341805152e-38
48 337 163 2.341805152e-38
48 347 88 2.341805152e-38
48 354 153 2.341805152e-38
48 361 103 2.341805152e-38
48 366 114 2.341805152e-38
48 369 127 2.341805152e-38
54 123 258 2.341805152e-38
54 125 172 2.341805152e-38
54 125 216 2.341805152e-38
54 125 236 2.341805152e-38
54 125 270 2.341805152e-38
54 126 156 2.341805152e-38
54 127 183 2.341805152e-38
54 128 149 2.341805152e-38
54 130 307 2.341805152e-38
54 133 315 2.341805152e-38
54 138 127 2.341805152e-38
54 143 122 2.341805152e-38
54 147 334 2.341805152e-38
54 152 339 2.341805152e-38
54 157 105 2.341805152e-38
54 163 98 2.341805152e-38
54 169 351 2.341805152e-38
54 177 353 2.341805152e-38
54 186 355 2.341805152e-38
54 195 345 2.341805152e-38
54 201 338 2.341805152e-38
54 206 85 2.341805152e-38
54 213 216 2.341805152e-38
54 216 308 2.341805152e-38
54 221 79 2.341805152e-38
54 226 77 2.341805152e-38
54 229 299 2.341805152e-38
54 233 75 2.341805152e-38
54 242 288 2.341805152e-38
54 249 251 2.341805152e-38
54 251 73 2.341805152e-38
54 254 73 2.341805152e-38
54 263 233 2.341805152e-38
54 272 224 2.341805152e-38
54 282 75 2.341805152e-38
54 292 75 2.341805152e-38
54 300 202 2.341805152e-38
54 309 195 2.341805152e-38
54 319 83 2.341805152e-38
54 328 87 2.341805152e-38
54 335 94 2.341805152e-38
54 342 103 2.341805152e-38
54 349 109 2.341805152e-38
54 353 157 2.341805152e-38
54 357 128 2.341805152e-38
60 124 174 2.341805152e-38
60 131 166 2.341805152e-38
60 134 191 2.341805152e-38
60 135 204 2.341805152e-38
60 137 217 2.341805152e-38
60 139 230 2.341805152e-38
60 139 262 2.341805152e-38
60 140 241 2.341805152e-38
60 141 283 2.341805152e-38
60 144 129 2.341805152e-38
60 147 306 2.341805152e-38
60 152 312 2.341805152e-38
60 157 317 2.341805152e-38
60 163 320 2.341805152e-38
60 170 323 2.341805152e-38
60 177 327 2.341805152e-38
60 184 331 2.341805152e-38
60 191 336 2.341805152e-38
60 200 87 2.341805152e-38
60 210 87 2.341805152e-38
60 220 87 2.341805152e-38
60 230 87 2.341805152e-38
60 239 87 2.341805152e-38
60 246 87 2.341805152e-38
60 249 241 2.341805152e-38
60 251 289 2.341805152e-38
60 253 287 2.341805152e-38
60 255 281 2.341805152e-38
60 261 229 2.341805152e-38
60 271 87 2.341805152e-38
60 280 218 2.341805152e-38
60 290 212 2.341805152e-38
60 300 92 2.341805152e-38
60 309 96 2.341805152e-38
60 315 183 2.341805152e-38
60 322 177 2.341805152e-38
60 329 167 2.341805152e-38
60 333 121 2.341805152e-38
60 336 133 2.341805152e-38
60 337 151 2.341805152e-38
66 133 170 2.341805152e-38
66 137 180 2.341805152e-38
66 139 195 2.341805152e-38
66 141 139 2.341805152e-38
66 146 133 2.341805152e-38
66 151 129 2.341805152e-38
66 157 229 2.341805152e-38
66 163 112 2.341805152e-38
66 169 107 2.341805152e-38
66 177 105 2.341805152e-38
66 183 238 2.341805152e-38
66 183 264 2.341805152e-38
66 185 231 2.341805152e-38
66 191 99 2.341805152e-38
66 197 279 2.341805152e-38
66 204 96 2.341805152e-38
66 210 299 2.341805152e-38
66 219 305 2.341805152e-38
66 229 95 2.341805152e-38
66 238 99 2.341805152e-38
66 246 299 2.341805152e-38
66 255 268 2.341805152e-38
66 257 263 2.341805152e-38
66 259 257 2.341805152e-38
66 263 243 2.341805152e-38
66 271 107 2.341805152e-38
66 275 221 2.341805152e-38
66 279 203 2.341805152e-38
66 288 196 2.341805152e-38
66 295 119 2.341805152e-38
66 299 176 2.341805152e-38
66 303 170 2.341805152e-38
66 307 143 2.341805152e-38
72 147 150 2.341805152e-38
72 150 163 2.341805152e-38
72 153 176 2.341805152e-38
72 157 188 2.341805152e-38
72 159 203 2.341805152e-38
72 164 213 2.341805152e-38
72 171 222 2.341805152e-38
72 179 113 2.341805152e-38
72 187 225 2.341805152e-38
72 197 105 2.341805152e-38
72 207 106 2.341805152e-38
72 217 107 2.341805152e-38
72 227 109 2.341805152e-38
72 236 113 2.341805152e-38
72 244 206 2.341805152e-38
72 250 200 2.341805152e-38
72 257 129 2.341805152e-38
72 262 142 2.341805152e-38
72 265 161 2.341805152e-38
72 267 151 2.341805152e-38
78 169 152 2.341805152e-38
78 176 141 2.341805152e-38
78 181 171 2.341805152e-38
78 189 181 2.341805152e-38
78 199 131 2.341805152e-38
78 209 131 2.341805152e-38
78 219 136 2.341805152e-38
78 225 180 2.341805152e-38
78 229 159 2.341805152e-38
78 231 154 2.341805152e-38
