# .PCD v0.7 - Point Cloud Data file format
VERSION 0.7
FIELDS x y z rgb
SIZE 4 4 4 4
TYPE F F F F
COUNT 1 1 1 1
WIDTH 491
HEIGHT 1
VIEWPOINT 0 0 0 1 0 0 0
POINTS 491
DATA ascii
15 215 83 2.341805152e-38
15 232 85 2.341805152e-38
15 253 77 2.341805152e-38
15 289 67 2.341805152e-38
20 214 99 2.341805152e-38
20 237 103 2.341805152e-38
20 261 103 2.341805152e-38
20 273 99 2.341805152e-38
20 283 85 2.341805152e-38
25 190 88 2.341805152e-38
25 209 74 2.341805152e-38
25 230 69 2.341805152e-38
25 255 69 2.341805152e-38
25 278 73 2.341805152e-38
25 300 81 2.341805152e-38
30 181 90 2.341805152e-38
30 198 73 2.341805152e-38
30 221 71 2.341805152e-38
30 243 117 2.341805152e-38
30 266 67 2.341805152e-38
30 289 113 2.341805152e-38
30 307 86 2.341805152e-38
35 171 104 2.341805152e-38
35 193 74 2.341805152e-38
35 217 71 2.341805152e-38
35 240 66 2.341805152e-38
35 264 121 2.341805152e-38
35 288 67 2.341805152e-38
35 310 77 2.341805152e-38
35 318 106 2.341805152e-38
40 170 86 2.341805152e-38
40 193 79 2.341805152e-38
40 216 71 2.341805152e-38
40 239 127 2.341805152e-38
40 263 127 2.341805152e-38
40 287 63 2.341805152e-38
40 310 72 2.341805152e-38
40 321 90 2.341805152e-38
45 155 101 2.341805152e-38
45 174 87 2.341805152e-38
45 196 125 2.341805152e-38
45 219 129 2.341805152e-38
45 242 64 2.341805152e-38
45 265 59 2.341805152e-38
45 289 61 2.341805152e-38
45 311 121 2.341805152e-38
45 328 88 2.341805152e-38
50 142 115 2.341805152e-38
50 158 95 2.341805152e-38
50 176 129 2.341805152e-38
50 199 77 2.341805152e-38
50 222 137 2.341805152e-38
50 245 139 2.341805152e-38
50 269 57 2.341805152e-38
50 292 131 2.341805152e-38
50 315 125 2.341805152e-38
50 335 81 2.341805152e-38
50 348 106 2.341805152e-38
55 148 104 2.341805152e-38
55 167 88 2.341805152e-38
55 186 77 2.341805152e-38
55 209 139 2.341805152e-38
55 231 143 2.341805152e-38
55 255 56 2.341805152e-38
55 278 142 2.341805152e-38
55 302 133 2.341805152e-38
55 324 71 2.341805152e-38
55 344 84 2.341805152e-38
55 353 115 2.341805152e-38
60 140 134 2.341805152e-38
60 161 96 2.341805152e-38
60 179 141 2.341805152e-38
60 201 74 2.341805152e-38
60 223 63 2.341805152e-38
60 246 153 2.341805152e-38
60 270 51 2.341805152e-38
60 294 55 2.341805152e-38
60 316 63 2.341805152e-38
60 336 129 2.341805152e-38
60 353 93 2.341805152e-38
65 119 143 2.341805152e-38
65 130 146 2.341805152e-38
65 146 100 2.341805152e-38
65 169 92 2.341805152e-38
65 185 75 2.341805152e-38
65 208 153 2.341805152e-38
65 230 161 2.341805152e-38
65 253 163 2.341805152e-38
65 278 49 2.341805152e-38
65 300 53 2.341805152e-38
65 322 139 2.341805152e-38
65 343 75 2.341805152e-38
65 359 96 2.341805152e-38
70 115 149 2.341805152e-38
70 125 172 2.341805152e-38
70 131 167 2.341805152e-38
70 150 143 2.341805152e-38
70 171 93 2.341805152e-38
70 191 78 2.341805152e-38
70 211 65 2.341805152e-38
70 232 55 2.341805152e-38
70 254 175 2.341805152e-38
70 279 47 2.341805152e-38
70 300 153 2.341805152e-38
70 323 58 2.341805152e-38
70 343 71 2.341805152e-38
70 359 93 2.341805152e-38
75 111 164 2.341805152e-38
75 119 120 2.341805152e-38
75 125 175 2.341805152e-38
75 136 139 2.341805152e-38
75 155 142 2.341805152e-38
75 173 88 2.341805152e-38
75 193 147 2.341805152e-38
75 212 63 2.341805152e-38
75 231 50 2.341805152e-38
75 244 184 2.341805152e-38
75 268 183 2.341805152e-38
75 292 166 2.341805152e-38
75 315 49 2.341805152e-38
75 335 60 2.341805152e-38
75 353 77 2.341805152e-38
75 367 123 2.341805152e-38
80 111 152 2.341805152e-38
80 121 156 2.341805152e-38
80 129 161 2.341805152e-38
80 145 101 2.341805152e-38
80 158 163 2.341805152e-38
80 177 166 2.341805152e-38
80 197 158 2.341805152e-38
80 207 179 2.341805152e-38
80 216 170 2.341805152e-38
80 230 175 2.341805152e-38
80 242 41 2.341805152e-38
80 265 41 2.341805152e-38
80 289 43 2.341805152e-38
80 312 47 2.341805152e-38
80 334 57 2.341805152e-38
80 353 69 2.341805152e-38
80 368 92 2.341805152e-38
85 105 157 2.341805152e-38
85 109 137 2.341805152e-38
85 126 181 2.341805152e-38
85 135 137 2.341805152e-38
85 145 135 2.341805152e-38
85 157 165 2.341805152e-38
85 175 163 2.341805152e-38
85 193 153 2.341805152e-38
85 214 57 2.341805152e-38
85 229 161 2.341805152e-38
85 236 163 2.341805152e-38
85 243 193 2.341805152e-38
85 255 186 2.341805152e-38
85 277 41 2.341805152e-38
85 300 45 2.341805152e-38
85 324 47 2.341805152e-38
85 344 59 2.341805152e-38
85 363 74 2.341805152e-38
85 375 98 2.341805152e-38
90 103 163 2.341805152e-38
90 111 175 2.341805152e-38
90 125 108 2.341805152e-38
90 134 139 2.341805152e-38
90 142 137 2.341805152e-38
90 156 84 2.341805152e-38
90 176 72 2.341805152e-38
90 193 155 2.341805152e-38
90 210 54 2.341805152e-38
90 220 175 2.341805152e-38
90 231 43 2.341805152e-38
90 239 167 2.341805152e-38
90 257 37 2.341805152e-38
90 278 183 2.341805152e-38
90 300 171 2.341805152e-38
90 324 49 2.341805152e-38
90 345 159 2.341805152e-38
90 365 73 2.341805152e-38
90 375 109 2.341805152e-38
95 99 131 2.341805152e-38
95 101 177 2.341805152e-38
95 115 118 2.341805152e-38
95 130 101 2.341805152e-38
95 138 187 2.341805152e-38
95 146 184 2.341805152e-38
95 154 146 2.341805152e-38
95 171 69 2.341805152e-38
95 187 161 2.341805152e-38
95 194 164 2.341805152e-38
95 202 173 2.341805152e-38
95 213 51 2.341805152e-38
95 222 148 2.341805152e-38
95 231 147 2.341805152e-38
95 239 39 2.341805152e-38
95 245 181 2.341805152e-38
95 266 189 2.341805152e-38
95 289 183 2.341805152e-38
95 310 171 2.341805152e-38
95 333 169 2.341805152e-38
95 354 64 2.341805152e-38
95 368 144 2.341805152e-38
95 375 120 2.341805152e-38
100 85 170 2.341805152e-38
100 97 187 2.341805152e-38
100 101 196 2.341805152e-38
100 117 112 2.341805152e-38
100 134 96 2.341805152e-38
100 143 162 2.341805152e-38
100 153 166 2.341805152e-38
100 161 159 2.341805152e-38
100 170 173 2.341805152e-38
100 178 163 2.341805152e-38
100 199 161 2.341805152e-38
100 221 154 2.341805152e-38
100 240 41 2.341805152e-38
100 246 173 2.341805152e-38
100 267 189 2.341805152e-38
100 290 185 2.341805152e-38
100 313 47 2.341805152e-38
100 335 171 2.341805152e-38
100 355 165 2.341805152e-38
100 369 143 2.341805152e-38
100 376 114 2.341805152e-38
105 85 203 2.341805152e-38
105 97 164 2.341805152e-38
105 100 144 2.341805152e-38
105 105 247 2.341805152e-38
105 113 117 2.341805152e-38
105 119 209 2.341805152e-38
105 127 237 2.341805152e-38
105 136 218 2.341805152e-38
105 153 77 2.341805152e-38
105 169 207 2.341805152e-38
105 184 56 2.341805152e-38
105 191 193 2.341805152e-38
105 212 165 2.341805152e-38
105 230 44 2.341805152e-38
105 239 180 2.341805152e-38
105 246 191 2.341805152e-38
105 270 37 2.341805152e-38
105 293 41 2.341805152e-38
105 315 179 2.341805152e-38
105 338 55 2.341805152e-38
105 356 69 2.341805152e-38
105 368 86 2.341805152e-38
105 374 105 2.341805152e-38
110 88 201 2.341805152e-38
110 96 200 2.341805152e-38
110 99 241 2.341805152e-38
110 107 128 2.341805152e-38
110 118 103 2.341805152e-38
110 132 91 2.341805152e-38
110 147 231 2.341805152e-38
110 164 72 2.341805152e-38
110 182 59 2.341805152e-38
110 195 194 2.341805152e-38
110 210 169 2.341805152e-38
110 223 41 2.341805152e-38
110 229 192 2.341805152e-38
110 236 43 2.341805152e-38
110 243 213 2.341805152e-38
110 258 39 2.341805152e-38
110 281 37 2.341805152e-38
110 302 45 2.341805152e-38
110 325 49 2.341805152e-38
110 345 173 2.341805152e-38
110 361 80 2.341805152e-38
110 369 112 2.341805152e-38
115 95 186 2.341805152e-38
115 99 206 2.341805152e-38
115 99 256 2.341805152e-38
115 109 260 2.341805152e-38
115 124 264 2.341805152e-38
115 139 86 2.341805152e-38
115 156 73 2.341805152e-38
115 175 249 2.341805152e-38
115 192 211 2.341805152e-38
115 199 253 2.341805152e-38
115 209 49 2.341805152e-38
115 219 184 2.341805152e-38
115 231 367 2.341805152e-38
115 241 249 2.341805152e-38
115 247 229 2.341805152e-38
115 254 381 2.341805152e-38
115 261 222 2.341805152e-38
115 267 216 2.341805152e-38
115 283 193 2.341805152e-38
115 305 46 2.341805152e-38
115 326 53 2.341805152e-38
115 344 71 2.341805152e-38
115 358 154 2.341805152e-38
115 365 116 2.341805152e-38
120 97 166 2.341805152e-38
120 99 218 2.341805152e-38
120 100 146 2.341805152e-38
120 112 118 2.341805152e-38
120 127 95 2.341805152e-38
120 144 82 2.341805152e-38
120 157 72 2.341805152e-38
120 178 259 2.341805152e-38
120 193 57 2.341805152e-38
120 204 264 2.341805152e-38
120 220 354 2.341805152e-38
120 225 350 2.341805152e-38
120 236 45 2.341805152e-38
120 244 389 2.341805152e-38
120 252 43 2.341805152e-38
120 259 232 2.341805152e-38
120 269 391 2.341805152e-38
120 278 343 2.341805152e-38
120 289 345 2.341805152e-38
120 297 354 2.341805152e-38
120 318 52 2.341805152e-38
120 338 67 2.341805152e-38
120 353 85 2.341805152e-38
120 361 105 2.341805152e-38
125 97 177 2.341805152e-38
125 99 217 2.341805152e-38
125 101 252 2.341805152e-38
125 110 120 2.341805152e-38
125 125 104 2.341805152e-38
125 140 267 2.341805152e-38
125 158 267 2.341805152e-38
125 174 267 2.341805152e-38
125 186 209 2.341805152e-38
125 197 350 2.341805152e-38
125 201 341 2.341805152e-38
125 209 269 2.341805152e-38
125 220 331 2.341805152e-38
125 229 329 2.341805152e-38
125 241 329 2.341805152e-38
125 248 329 2.341805152e-38
125 256 395 2.341805152e-38
125 264 232 2.341805152e-38
125 271 202 2.341805152e-38
125 282 333 2.341805152e-38
125 293 338 2.341805152e-38
125 303 364 2.341805152e-38
125 311 350 2.341805152e-38
125 330 67 2.341805152e-38
125 345 158 2.341805152e-38
125 353 111 2.341805152e-38
130 99 159 2.341805152e-38
130 99 213 2.341805152e-38
130 101 139 2.341805152e-38
130 108 269 2.341805152e-38
130 122 275 2.341805152e-38
130 139 87 2.341805152e-38
130 157 77 2.341805152e-38
130 168 73 2.341805152e-38
130 179 273 2.341805152e-38
130 189 213 2.341805152e-38
130 195 64 2.341805152e-38
130 201 331 2.341805152e-38
130 207 331 2.341805152e-38
130 217 59 2.341805152e-38
130 225 392 2.341805152e-38
130 236 399 2.341805152e-38
130 246 55 2.341805152e-38
130 253 223 2.341805152e-38
130 260 325 2.341805152e-38
130 267 196 2.341805152e-38
130 277 53 2.341805152e-38
130 288 325 2.341805152e-38
130 299 187 2.341805152e-38
130 308 61 2.341805152e-38
130 317 361 2.341805152e-38
130 326 166 2.341805152e-38
130 330 360 2.341805152e-38
130 335 157 2.341805152e-38
130 340 144 2.341805152e-38
130 343 137 2.341805152e-38
135 101 135 2.341805152e-38
135 101 223 2.341805152e-38
135 102 277 2.341805152e-38
135 115 283 2.341805152e-38
135 133 98 2.341805152e-38
135 148 86 2.341805152e-38
135 169 281 2.341805152e-38
135 191 71 2.341805152e-38
135 199 67 2.341805152e-38
135 205 224 2.341805152e-38
135 211 65 2.341805152e-38
135 221 392 2.341805152e-38
135 229 401 2.341805152e-38
135 241 211 2.341805152e-38
135 247 399 2.341805152e-38
135 255 220 2.341805152e-38
135 262 59 2.341805152e-38
135 271 197 2.341805152e-38
135 283 59 2.341805152e-38
135 293 321 2.341805152e-38
135 302 319 2.341805152e-38
135 309 169 2.341805152e-38
135 316 74 2.341805152e-38
135 324 83 2.341805152e-38
135 330 374 2.341805152e-38
135 334 369 2.341805152e-38
135 337 360 2.341805152e-38
140 103 161 2.341805152e-38
140 103 239 2.341805152e-38
140 105 204 2.341805152e-38
140 118 116 2.341805152e-38
140 131 289 2.341805152e-38
140 148 93 2.341805152e-38
140 166 289 2.341805152e-38
140 185 325 2.341805152e-38
140 195 73 2.341805152e-38
140 203 71 2.341805152e-38
140 213 361 2.341805152e-38
140 220 370 2.341805152e-38
140 227 254 2.341805152e-38
140 235 67 2.341805152e-38
140 242 223 2.341805152e-38
140 249 237 2.341805152e-38
140 256 227 2.341805152e-38
140 265 396 2.341805152e-38
140 276 67 2.341805152e-38
140 287 71 2.341805152e-38
140 298 171 2.341805152e-38
140 308 84 2.341805152e-38
140 315 395 2.341805152e-38
140 321 325 2.341805152e-38
140 329 332 2.341805152e-38
140 337 358 2.341805152e-38
145 107 206 2.341805152e-38
145 109 162 2.341805152e-38
145 111 144 2.341805152e-38
145 124 122 2.341805152e-38
145 137 109 2.341805152e-38
145 155 93 2.341805152e-38
145 174 305 2.341805152e-38
145 198 292 2.341805152e-38
145 209 257 2.341805152e-38
145 231 224 2.341805152e-38
145 239 75 2.341805152e-38
145 255 75 2.341805152e-38
145 266 376 2.341805152e-38
145 272 343 2.341805152e-38
145 281 333 2.341805152e-38
145 292 88 2.341805152e-38
145 298 382 2.341805152e-38
145 305 144 2.341805152e-38
145 309 323 2.341805152e-38
145 324 333 2.341805152e-38
145 331 363 2.341805152e-38
150 107 253 2.341805152e-38
150 111 234 2.341805152e-38
150 119 155 2.341805152e-38
150 121 193 2.341805152e-38
150 131 125 2.341805152e-38
150 147 322 2.341805152e-38
150 166 95 2.341805152e-38
150 189 305 2.341805152e-38
150 206 255 2.341805152e-38
150 214 238 2.341805152e-38
150 228 83 2.341805152e-38
150 244 186 2.341805152e-38
150 264 90 2.341805152e-38
150 279 157 2.341805152e-38
150 290 136 2.341805152e-38
155 115 255 2.341805152e-38
155 123 223 2.341805152e-38
155 131 166 2.341805152e-38
155 135 134 2.341805152e-38
155 141 296 2.341805152e-38
155 152 116 2.341805152e-38
155 170 309 2.341805152e-38
155 193 309 2.341805152e-38
155 207 241 2.341805152e-38
155 213 273 2.341805152e-38
155 228 95 2.341805152e-38
155 246 99 2.341805152e-38
155 260 109 2.341805152e-38
155 271 126 2.341805152e-38
160 143 167 2.341805152e-38
160 149 255 2.341805152e-38
160 155 194 2.341805152e-38
160 159 202 2.341805152e-38
160 165 295 2.341805152e-38
160 186 284 2.341805152e-38
160 201 264 2.341805152e-38
160 217 224 2.341805152e-38
160 231 192 2.341805152e-38
160 244 176 2.341805152e-38
160 247 194 2.341805152e-38
165 165 173 2.341805152e-38
165 178 195 2.341805152e-38
165 199 123 2.341805152e-38
165 217 205 2.341805152e-38
165 227 158 2.341805152e-38
170 222 59 2.341805152e-38
