# .PCD v0.7 - Point Cloud Data file format
VERSION 0.7
FIELDS x y z rgb
SIZE 4 4 4 4
TYPE F F F F
COUNT 1 1 1 1
WIDTH 325
HEIGHT 1
VIEWPOINT 0 0 0 1 0 0 0
POINTS 325
DATA ascii
0 271 185 9.147676375e-41
0 291 186 9.147676375e-41
0 300 467 9.147676375e-41
0 307 471 9.147676375e-41
0 314 153 9.147676375e-41
0 325 149 9.147676375e-41
0 333 171 9.147676375e-41
0 343 150 9.147676375e-41
0 347 191 9.147676375e-41
0 352 184 9.147676375e-41
0 356 331 9.147676375e-41
0 362 258 9.147676375e-41
0 368 109 9.147676375e-41
0 373 125 9.147676375e-41
0 378 145 9.147676375e-41
0 385 269 9.147676375e-41
0 393 290 9.147676375e-41
0 399 293 9.147676375e-41
0 405 326 9.147676375e-41
5 293 304 9.147676375e-41
5 302 471 9.147676375e-41
5 310 199 9.147676375e-41
5 322 201 9.147676375e-41
5 334 201 9.147676375e-41
5 341 196 9.147676375e-41
5 351 131 9.147676375e-41
5 362 309 9.147676375e-41
5 368 301 9.147676375e-41
5 372 295 9.147676375e-41
5 377 334 9.147676375e-41
5 384 123 9.147676375e-41
5 392 149 9.147676375e-41
5 398 345 9.147676375e-41
10 280 183 9.147676375e-41
10 300 468 9.147676375e-41
10 307 472 9.147676375e-41
10 317 313 9.147676375e-41
10 333 192 9.147676375e-41
10 343 176 9.147676375e-41
10 368 134 9.147676375e-41
10 375 328 9.147676375e-41
10 381 122 9.147676375e-41
10 388 125 9.147676375e-41
10 394 346 9.147676375e-41
10 401 336 9.147676375e-41
15 290 180 9.147676375e-41
15 298 197 9.147676375e-41
15 305 306 9.147676375e-41
15 316 162 9.147676375e-41
15 327 197 9.147676375e-41
15 337 161 9.147676375e-41
15 375 318 9.147676375e-41
15 383 309 9.147676375e-41
15 399 324 9.147676375e-41
20 294 399 9.147676375e-41
20 303 175 9.147676375e-41
20 320 183 9.147676375e-41
20 331 184 9.147676375e-41
20 359 139 9.147676375e-41
20 372 132 9.147676375e-41
20 381 338 9.147676375e-41
20 389 293 9.147676375e-41
20 397 312 9.147676375e-41
25 307 188 9.147676375e-41
25 318 305 9.147676375e-41
25 331 163 9.147676375e-41
25 350 173 9.147676375e-41
25 358 154 9.147676375e-41
25 368 118 9.147676375e-41
25 375 117 9.147676375e-41
25 383 333 9.147676375e-41
25 388 293 9.147676375e-41
25 394 348 9.147676375e-41
25 400 153 9.147676375e-41
30 296 275 9.147676375e-41
30 302 287 9.147676375e-41
30 312 259 9.147676375e-41
30 317 305 9.147676375e-41
30 323 268 9.147676375e-41
30 332 207 9.147676375e-41
30 345 201 9.147676375e-41
30 357 169 9.147676375e-41
30 366 120 9.147676375e-41
30 373 145 9.147676375e-41
30 376 307 9.147676375e-41
30 383 142 9.147676375e-41
30 388 121 9.147676375e-41
30 395 314 9.147676375e-41
30 405 146 9.147676375e-41
35 213 112 9.147676375e-41
35 311 179 9.147676375e-41
35 321 175 9.147676375e-41
35 332 207 9.147676375e-41
35 343 302 9.147676375e-41
35 359 138 9.147676375e-41
35 363 177 9.147676375e-41
35 371 266 9.147676375e-41
35 377 275 9.147676375e-41
35 384 271 9.147676375e-41
35 390 299 9.147676375e-41
35 396 329 9.147676375e-41
35 401 323 9.147676375e-41
40 194 121 9.147676375e-41
40 214 111 9.147676375e-41
40 233 111 9.147676375e-41
40 292 159 9.147676375e-41
40 314 140 9.147676375e-41
40 325 185 9.147676375e-41
40 334 179 9.147676375e-41
40 345 169 9.147676375e-41
40 374 118 9.147676375e-41
40 382 303 9.147676375e-41
40 387 147 9.147676375e-41
40 394 128 9.147676375e-41
40 407 150 9.147676375e-41
45 191 106 9.147676375e-41
45 213 103 9.147676375e-41
45 231 109 9.147676375e-41
45 317 198 9.147676375e-41
45 336 199 9.147676375e-41
45 380 285 9.147676375e-41
45 400 143 9.147676375e-41
50 185 136 9.147676375e-41
50 201 156 9.147676375e-41
50 224 89 9.147676375e-41
50 238 141 9.147676375e-41
50 251 120 9.147676375e-41
50 285 449 9.147676375e-41
50 377 280 9.147676375e-41
55 153 65 9.147676375e-41
55 171 64 9.147676375e-41
55 176 85 9.147676375e-41
55 187 146 9.147676375e-41
55 196 65 9.147676375e-41
55 214 177 9.147676375e-41
55 233 49 9.147676375e-41
55 242 150 9.147676375e-41
55 250 136 9.147676375e-41
55 256 457 9.147676375e-41
55 262 115 9.147676375e-41
55 268 421 9.147676375e-41
55 279 421 9.147676375e-41
55 296 448 9.147676375e-41
55 389 129 9.147676375e-41
60 144 69 9.147676375e-41
60 160 87 9.147676375e-41
60 173 119 9.147676375e-41
60 188 149 9.147676375e-41
60 202 43 9.147676375e-41
60 225 41 9.147676375e-41
60 234 166 9.147676375e-41
60 243 156 9.147676375e-41
60 249 424 9.147676375e-41
60 257 138 9.147676375e-41
60 260 88 9.147676375e-41
60 264 127 9.147676375e-41
60 271 461 9.147676375e-41
60 286 438 9.147676375e-41
60 297 417 9.147676375e-41
60 305 424 9.147676375e-41
60 320 146 9.147676375e-41
60 371 160 9.147676375e-41
60 392 137 9.147676375e-41
60 403 163 9.147676375e-41
65 218 454 9.147676375e-41
65 228 433 9.147676375e-41
65 239 403 9.147676375e-41
65 254 420 9.147676375e-41
65 272 477 9.147676375e-41
65 289 460 9.147676375e-41
65 309 278 9.147676375e-41
65 314 413 9.147676375e-41
65 322 270 9.147676375e-41
65 363 179 9.147676375e-41
65 375 149 9.147676375e-41
65 388 172 9.147676375e-41
65 408 141 9.147676375e-41
70 231 385 9.147676375e-41
70 254 384 9.147676375e-41
70 360 182 9.147676375e-41
70 375 201 9.147676375e-41
70 389 185 9.147676375e-41
70 408 171 9.147676375e-41
75 220 386 9.147676375e-41
75 241 377 9.147676375e-41
75 261 378 9.147676375e-41
75 303 173 9.147676375e-41
75 362 195 9.147676375e-41
75 375 195 9.147676375e-41
75 388 156 9.147676375e-41
75 406 159 9.147676375e-41
80 413 170 9.147676375e-41
85 114 402 9.147676375e-41
85 254 271 9.147676375e-41
85 380 174 9.147676375e-41
85 388 309 9.147676375e-41
85 399 307 9.147676375e-41
85 409 160 9.147676375e-41
85 414 287 9.147676375e-41
85 423 174 9.147676375e-41
90 114 412 9.147676375e-41
90 131 409 9.147676375e-41
90 153 171 9.147676375e-41
90 256 273 9.147676375e-41
90 381 289 9.147676375e-41
90 391 305 9.147676375e-41
90 398 173 9.147676375e-41
90 404 279 9.147676375e-41
90 413 163 9.147676375e-41
90 419 195 9.147676375e-41
90 424 180 9.147676375e-41
95 95 386 9.147676375e-41
95 113 412 9.147676375e-41
95 131 412 9.147676375e-41
95 403 273 9.147676375e-41
95 411 169 9.147676375e-41
95 418 275 9.147676375e-41
95 423 196 9.147676375e-41
100 88 385 9.147676375e-41
100 100 399 9.147676375e-41
100 125 420 9.147676375e-41
100 215 397 9.147676375e-41
100 233 391 9.147676375e-41
100 244 351 9.147676375e-41
100 255 351 9.147676375e-41
100 401 271 9.147676375e-41
100 412 174 9.147676375e-41
100 419 295 9.147676375e-41
100 423 294 9.147676375e-41
105 89 387 9.147676375e-41
105 122 413 9.147676375e-41
105 214 314 9.147676375e-41
105 226 327 9.147676375e-41
105 233 364 9.147676375e-41
105 239 387 9.147676375e-41
105 247 332 9.147676375e-41
105 255 299 9.147676375e-41
105 266 329 9.147676375e-41
105 380 303 9.147676375e-41
105 406 285 9.147676375e-41
105 417 180 9.147676375e-41
105 423 297 9.147676375e-41
110 85 380 9.147676375e-41
110 117 412 9.147676375e-41
110 173 448 9.147676375e-41
110 214 323 9.147676375e-41
110 235 315 9.147676375e-41
110 258 259 9.147676375e-41
110 271 275 9.147676375e-41
110 293 255 9.147676375e-41
110 422 273 9.147676375e-41
115 120 406 9.147676375e-41
115 134 418 9.147676375e-41
115 152 433 9.147676375e-41
115 178 442 9.147676375e-41
115 199 397 9.147676375e-41
115 216 401 9.147676375e-41
115 221 366 9.147676375e-41
115 225 376 9.147676375e-41
115 231 283 9.147676375e-41
115 245 372 9.147676375e-41
115 261 296 9.147676375e-41
115 269 323 9.147676375e-41
115 332 287 9.147676375e-41
115 357 293 9.147676375e-41
115 392 317 9.147676375e-41
115 426 177 9.147676375e-41
120 117 395 9.147676375e-41
120 150 415 9.147676375e-41
120 171 423 9.147676375e-41
120 221 361 9.147676375e-41
120 227 366 9.147676375e-41
120 231 375 9.147676375e-41
120 245 292 9.147676375e-41
120 257 326 9.147676375e-41
120 373 205 9.147676375e-41
130 228 274 9.147676375e-41
150 224 426 9.147676375e-41
155 324 463 9.147676375e-41
170 307 237 9.147676375e-41
175 132 107 9.147676375e-41
175 141 71 9.147676375e-41
175 147 159 9.147676375e-41
175 159 175 9.147676375e-41
175 181 101 9.147676375e-41
175 189 94 9.147676375e-41
175 197 89 9.147676375e-41
175 202 61 9.147676375e-41
175 208 58 9.147676375e-41
175 213 114 9.147676375e-41
175 220 49 9.147676375e-41
175 229 153 9.147676375e-41
175 253 153 9.147676375e-41
175 274 149 9.147676375e-41
175 289 176 9.147676375e-41
175 300 187 9.147676375e-41
175 317 177 9.147676375e-41
175 337 48 9.147676375e-41
175 354 144 9.147676375e-41
175 372 120 9.147676375e-41
175 388 99 9.147676375e-41
180 111 415 9.147676375e-41
180 124 416 9.147676375e-41
180 131 416 9.147676375e-41
180 143 130 9.147676375e-41
180 151 73 9.147676375e-41
180 167 73 9.147676375e-41
180 175 115 9.147676375e-41
180 185 85 9.147676375e-41
180 192 95 9.147676375e-41
180 197 81 9.147676375e-41
180 202 105 9.147676375e-41
180 207 115 9.147676375e-41
180 215 57 9.147676375e-41
180 235 158 9.147676375e-41
180 253 40 9.147676375e-41
180 259 155 9.147676375e-41
180 265 203 9.147676375e-41
180 277 173 9.147676375e-41
180 298 40 9.147676375e-41
180 318 41 9.147676375e-41
180 340 51 9.147676375e-41
180 358 148 9.147676375e-41
180 370 71 9.147676375e-41
180 386 88 9.147676375e-41
