# .PCD v0.7 - Point Cloud Data file format
VERSION 0.7
FIELDS x y z rgb
SIZE 4 4 4 4
TYPE F F F F
COUNT 1 1 1 1
WIDTH 436
HEIGHT 1
VIEWPOINT 0 0 0 1 0 0 0
POINTS 436
DATA ascii
6 171 85 9.147676375e-41
6 178 81 9.147676375e-41
6 185 95 9.147676375e-41
6 195 75 9.147676375e-41
6 204 73 9.147676375e-41
6 214 73 9.147676375e-41
6 222 90 9.147676375e-41
12 149 96 9.147676375e-41
12 153 89 9.147676375e-41
12 161 82 9.147676375e-41
12 170 79 9.147676375e-41
12 179 76 9.147676375e-41
12 187 105 9.147676375e-41
12 196 109 9.147676375e-41
12 205 67 9.147676375e-41
12 214 109 9.147676375e-41
12 223 106 9.147676375e-41
12 231 102 9.147676375e-41
12 240 67 9.147676375e-41
12 247 72 9.147676375e-41
12 252 76 9.147676375e-41
18 140 102 9.147676375e-41
18 147 94 9.147676375e-41
18 154 113 9.147676375e-41
18 162 84 9.147676375e-41
18 171 78 9.147676375e-41
18 179 121 9.147676375e-41
18 188 121 9.147676375e-41
18 198 67 9.147676375e-41
18 207 65 9.147676375e-41
18 216 123 9.147676375e-41
18 225 120 9.147676375e-41
18 233 116 9.147676375e-41
18 241 111 9.147676375e-41
18 249 106 9.147676375e-41
18 257 68 9.147676375e-41
18 263 99 9.147676375e-41
18 269 95 9.147676375e-41
24 131 109 9.147676375e-41
24 138 99 9.147676375e-41
24 146 119 9.147676375e-41
24 154 123 9.147676375e-41
24 162 83 9.147676375e-41
24 169 127 9.147676375e-41
24 178 73 9.147676375e-41
24 187 71 9.147676375e-41
24 196 133 9.147676375e-41
24 206 65 9.147676375e-41
24 215 135 9.147676375e-41
24 225 61 9.147676375e-41
24 234 60 9.147676375e-41
24 243 59 9.147676375e-41
24 250 61 9.147676375e-41
24 257 117 9.147676375e-41
24 264 65 9.147676375e-41
24 271 68 9.147676375e-41
24 279 72 9.147676375e-41
24 284 77 9.147676375e-41
24 288 89 9.147676375e-41
30 91 246 9.147676375e-41
30 91 266 9.147676375e-41
30 93 212 9.147676375e-41
30 93 232 9.147676375e-41
30 96 202 9.147676375e-41
30 101 188 9.147676375e-41
30 108 189 9.147676375e-41
30 111 277 9.147676375e-41
30 115 207 9.147676375e-41
30 117 214 9.147676375e-41
30 117 234 9.147676375e-41
30 117 254 9.147676375e-41
30 140 100 9.147676375e-41
30 147 120 9.147676375e-41
30 154 123 9.147676375e-41
30 161 81 9.147676375e-41
30 170 133 9.147676375e-41
30 179 138 9.147676375e-41
30 188 143 9.147676375e-41
30 197 145 9.147676375e-41
30 207 63 9.147676375e-41
30 216 149 9.147676375e-41
30 226 151 9.147676375e-41
30 236 151 9.147676375e-41
30 245 147 9.147676375e-41
30 254 61 9.147676375e-41
30 260 136 9.147676375e-41
30 267 61 9.147676375e-41
30 275 63 9.147676375e-41
30 284 67 9.147676375e-41
30 292 70 9.147676375e-41
30 297 107 9.147676375e-41
30 302 102 9.147676375e-41
30 305 99 9.147676375e-41
36 87 231 9.147676375e-41
36 87 251 9.147676375e-41
36 87 271 9.147676375e-41
36 89 279 9.147676375e-41
36 92 203 9.147676375e-41
36 95 195 9.147676375e-41
36 97 189 9.147676375e-41
36 102 173 9.147676375e-41
36 110 306 9.147676375e-41
36 114 118 9.147676375e-41
36 117 174 9.147676375e-41
36 121 112 9.147676375e-41
36 123 181 9.147676375e-41
36 125 184 9.147676375e-41
36 127 187 9.147676375e-41
36 129 106 9.147676375e-41
36 130 245 9.147676375e-41
36 132 104 9.147676375e-41
36 133 233 9.147676375e-41
36 135 209 9.147676375e-41
36 138 99 9.147676375e-41
36 143 121 9.147676375e-41
36 151 88 9.147676375e-41
36 157 121 9.147676375e-41
36 166 77 9.147676375e-41
36 175 73 9.147676375e-41
36 184 133 9.147676375e-41
36 193 137 9.147676375e-41
36 201 144 9.147676375e-41
36 209 65 9.147676375e-41
36 217 160 9.147676375e-41
36 223 173 9.147676375e-41
36 230 61 9.147676375e-41
36 240 61 9.147676375e-41
36 246 175 9.147676375e-41
36 251 167 9.147676375e-41
36 258 65 9.147676375e-41
36 266 66 9.147676375e-41
36 272 142 9.147676375e-41
36 282 69 9.147676375e-41
36 291 69 9.147676375e-41
36 300 127 9.147676375e-41
36 308 123 9.147676375e-41
36 316 120 9.147676375e-41
36 323 89 9.147676375e-41
36 325 104 9.147676375e-41
42 85 257 9.147676375e-41
42 85 277 9.147676375e-41
42 87 235 9.147676375e-41
42 89 215 9.147676375e-41
42 91 209 9.147676375e-41
42 93 305 9.147676375e-41
42 96 311 9.147676375e-41
42 98 147 9.147676375e-41
42 100 130 9.147676375e-41
42 102 180 9.147676375e-41
42 105 179 9.147676375e-41
42 109 177 9.147676375e-41
42 113 112 9.147676375e-41
42 116 319 9.147676375e-41
42 120 167 9.147676375e-41
42 123 174 9.147676375e-41
42 126 304 9.147676375e-41
42 131 289 9.147676375e-41
42 135 97 9.147676375e-41
42 139 254 9.147676375e-41
42 141 251 9.147676375e-41
42 147 91 9.147676375e-41
42 150 222 9.147676375e-41
42 154 217 9.147676375e-41
42 157 212 9.147676375e-41
42 161 85 9.147676375e-41
42 166 187 9.147676375e-41
42 170 78 9.147676375e-41
42 174 145 9.147676375e-41
42 178 147 9.147676375e-41
42 181 152 9.147676375e-41
42 183 156 9.147676375e-41
42 185 163 9.147676375e-41
42 195 67 9.147676375e-41
42 204 140 9.147676375e-41
42 211 67 9.147676375e-41
42 217 154 9.147676375e-41
42 220 157 9.147676375e-41
42 223 185 9.147676375e-41
42 229 67 9.147676375e-41
42 238 199 9.147676375e-41
42 248 196 9.147676375e-41
42 258 190 9.147676375e-41
42 265 178 9.147676375e-41
42 270 67 9.147676375e-41
42 278 158 9.147676375e-41
42 287 75 9.147676375e-41
42 296 151 9.147676375e-41
42 305 147 9.147676375e-41
42 315 83 9.147676375e-41
42 324 87 9.147676375e-41
42 331 93 9.147676375e-41
42 336 105 9.147676375e-41
42 339 118 9.147676375e-41
48 85 273 9.147676375e-41
48 87 253 9.147676375e-41
48 88 295 9.147676375e-41
48 89 243 9.147676375e-41
48 91 201 9.147676375e-41
48 91 221 9.147676375e-41
48 93 189 9.147676375e-41
48 95 147 9.147676375e-41
48 97 142 9.147676375e-41
48 99 322 9.147676375e-41
48 102 181 9.147676375e-41
48 105 331 9.147676375e-41
48 109 167 9.147676375e-41
48 113 119 9.147676375e-41
48 117 112 9.147676375e-41
48 121 105 9.147676375e-41
48 124 101 9.147676375e-41
48 127 320 9.147676375e-41
48 130 314 9.147676375e-41
48 134 187 9.147676375e-41
48 137 298 9.147676375e-41
48 141 189 9.147676375e-41
48 144 282 9.147676375e-41
48 148 88 9.147676375e-41
48 149 272 9.147676375e-41
48 153 87 9.147676375e-41
48 157 87 9.147676375e-41
48 160 240 9.147676375e-41
48 164 235 9.147676375e-41
48 168 199 9.147676375e-41
48 172 201 9.147676375e-41
48 176 189 9.147676375e-41
48 180 81 9.147676375e-41
48 183 185 9.147676375e-41
48 188 77 9.147676375e-41
48 193 168 9.147676375e-41
48 197 159 9.147676375e-41
48 199 210 9.147676375e-41
48 201 218 9.147676375e-41
48 203 194 9.147676375e-41
48 207 69 9.147676375e-41
48 209 233 9.147676375e-41
48 213 69 9.147676375e-41
48 216 158 9.147676375e-41
48 221 71 9.147676375e-41
48 230 71 9.147676375e-41
48 239 233 9.147676375e-41
48 248 227 9.147676375e-41
48 255 221 9.147676375e-41
48 259 209 9.147676375e-41
48 267 197 9.147676375e-41
48 277 187 9.147676375e-41
48 284 75 9.147676375e-41
48 293 169 9.147676375e-41
48 302 83 9.147676375e-41
48 311 87 9.147676375e-41
48 320 91 9.147676375e-41
48 328 97 9.147676375e-41
48 336 102 9.147676375e-41
48 342 109 9.147676375e-41
48 345 121 9.147676375e-41
48 347 134 9.147676375e-41
54 87 283 9.147676375e-41
54 89 259 9.147676375e-41
54 91 227 9.147676375e-41
54 91 247 9.147676375e-41
54 93 209 9.147676375e-41
54 94 205 9.147676375e-41
54 95 196 9.147676375e-41
54 96 174 9.147676375e-41
54 98 182 9.147676375e-41
54 100 148 9.147676375e-41
54 104 140 9.147676375e-41
54 109 129 9.147676375e-41
54 115 121 9.147676375e-41
54 121 115 9.147676375e-41
54 128 107 9.147676375e-41
54 134 104 9.147676375e-41
54 139 98 9.147676375e-41
54 142 187 9.147676375e-41
54 145 190 9.147676375e-41
54 149 293 9.147676375e-41
54 155 89 9.147676375e-41
54 161 274 9.147676375e-41
54 168 85 9.147676375e-41
54 176 260 9.147676375e-41
54 179 259 9.147676375e-41
54 183 255 9.147676375e-41
54 187 216 9.147676375e-41
54 189 227 9.147676375e-41
54 189 247 9.147676375e-41
54 195 194 9.147676375e-41
54 197 223 9.147676375e-41
54 199 229 9.147676375e-41
54 206 81 9.147676375e-41
54 215 247 9.147676375e-41
54 224 245 9.147676375e-41
54 234 74 9.147676375e-41
54 243 231 9.147676375e-41
54 253 77 9.147676375e-41
54 259 210 9.147676375e-41
54 268 204 9.147676375e-41
54 278 81 9.147676375e-41
54 288 82 9.147676375e-41
54 297 85 9.147676375e-41
54 306 89 9.147676375e-41
54 315 94 9.147676375e-41
54 322 168 9.147676375e-41
54 329 108 9.147676375e-41
54 335 115 9.147676375e-41
54 339 126 9.147676375e-41
54 340 141 9.147676375e-41
60 91 280 9.147676375e-41
60 93 256 9.147676375e-41
60 94 300 9.147676375e-41
60 95 302 9.147676375e-41
60 97 228 9.147676375e-41
60 99 215 9.147676375e-41
60 101 319 9.147676375e-41
60 105 171 9.147676375e-41
60 105 329 9.147676375e-41
60 107 333 9.147676375e-41
60 111 139 9.147676375e-41
60 114 132 9.147676375e-41
60 119 125 9.147676375e-41
60 125 345 9.147676375e-41
60 132 345 9.147676375e-41
60 139 103 9.147676375e-41
60 147 99 9.147676375e-41
60 152 322 9.147676375e-41
60 159 93 9.147676375e-41
60 168 90 9.147676375e-41
60 177 299 9.147676375e-41
60 186 299 9.147676375e-41
60 196 296 9.147676375e-41
60 203 220 9.147676375e-41
60 206 235 9.147676375e-41
60 211 85 9.147676375e-41
60 215 85 9.147676375e-41
60 220 85 9.147676375e-41
60 223 281 9.147676375e-41
60 226 236 9.147676375e-41
60 229 235 9.147676375e-41
60 239 231 9.147676375e-41
60 249 225 9.147676375e-41
60 258 89 9.147676375e-41
60 267 209 9.147676375e-41
60 277 93 9.147676375e-41
60 286 196 9.147676375e-41
60 293 187 9.147676375e-41
60 302 105 9.147676375e-41
60 309 110 9.147676375e-41
60 315 116 9.147676375e-41
60 320 124 9.147676375e-41
60 321 155 9.147676375e-41
66 105 274 9.147676375e-41
66 105 294 9.147676375e-41
66 107 262 9.147676375e-41
66 109 244 9.147676375e-41
66 112 234 9.147676375e-41
66 113 214 9.147676375e-41
66 114 317 9.147676375e-41
66 115 203 9.147676375e-41
66 115 319 9.147676375e-41
66 118 326 9.147676375e-41
66 121 146 9.147676375e-41
66 124 335 9.147676375e-41
66 129 337 9.147676375e-41
66 135 339 9.147676375e-41
66 141 341 9.147676375e-41
66 147 343 9.147676375e-41
66 157 95 9.147676375e-41
66 166 94 9.147676375e-41
66 174 93 9.147676375e-41
66 183 317 9.147676375e-41
66 193 89 9.147676375e-41
66 203 89 9.147676375e-41
66 212 93 9.147676375e-41
66 220 294 9.147676375e-41
66 224 243 9.147676375e-41
66 225 286 9.147676375e-41
66 228 98 9.147676375e-41
66 231 237 9.147676375e-41
66 241 101 9.147676375e-41
66 249 223 9.147676375e-41
66 256 105 9.147676375e-41
66 265 203 9.147676375e-41
66 274 194 9.147676375e-41
66 281 187 9.147676375e-41
66 288 126 9.147676375e-41
66 291 153 9.147676375e-41
66 292 152 9.147676375e-41
72 121 189 9.147676375e-41
72 121 209 9.147676375e-41
72 124 216 9.147676375e-41
72 125 216 9.147676375e-41
72 127 151 9.147676375e-41
72 131 221 9.147676375e-41
72 136 124 9.147676375e-41
72 141 116 9.147676375e-41
72 145 261 9.147676375e-41
72 147 269 9.147676375e-41
72 150 275 9.147676375e-41
72 154 247 9.147676375e-41
72 159 105 9.147676375e-41
72 167 277 9.147676375e-41
72 177 98 9.147676375e-41
72 183 283 9.147676375e-41
72 186 285 9.147676375e-41
72 190 243 9.147676375e-41
72 194 290 9.147676375e-41
72 199 247 9.147676375e-41
72 206 289 9.147676375e-41
72 211 287 9.147676375e-41
72 216 244 9.147676375e-41
72 219 251 9.147676375e-41
72 221 252 9.147676375e-41
72 221 276 9.147676375e-41
72 223 240 9.147676375e-41
72 227 233 9.147676375e-41
72 231 111 9.147676375e-41
72 234 199 9.147676375e-41
72 239 120 9.147676375e-41
72 244 126 9.147676375e-41
72 248 186 9.147676375e-41
72 252 180 9.147676375e-41
72 255 159 9.147676375e-41
78 139 146 9.147676375e-41
78 143 135 9.147676375e-41
78 145 177 9.147676375e-41
78 146 172 9.147676375e-41
78 150 126 9.147676375e-41
78 157 202 9.147676375e-41
78 165 200 9.147676375e-41
78 171 113 9.147676375e-41
78 180 111 9.147676375e-41
78 190 111 9.147676375e-41
78 199 191 9.147676375e-41
78 209 191 9.147676375e-41
78 218 123 9.147676375e-41
78 224 184 9.147676375e-41
78 229 143 9.147676375e-41
78 231 159 9.147676375e-41
