# .PCD v0.7 - Point Cloud Data file format
VERSION 0.7
FIELDS x y z rgb
SIZE 4 4 4 4
TYPE F F F F
COUNT 1 1 1 1
WIDTH 1226
HEIGHT 1
VIEWPOINT 0 0 0 1 0 0 0
POINTS 1226
DATA ascii
0 180 55 9.147676375e-41
0 187 59 9.147676375e-41
0 197 42 9.147676375e-41
0 207 39 9.147676375e-41
0 215 40 9.147676375e-41
5 172 54 9.147676375e-41
5 180 64 9.147676375e-41
5 190 44 9.147676375e-41
5 199 65 9.147676375e-41
5 209 63 9.147676375e-41
5 219 37 9.147676375e-41
5 226 50 9.147676375e-41
10 164 58 9.147676375e-41
10 172 52 9.147676375e-41
10 181 45 9.147676375e-41
10 191 41 9.147676375e-41
10 200 73 9.147676375e-41
10 210 70 9.147676375e-41
10 220 34 9.147676375e-41
10 228 59 9.147676375e-41
10 236 41 9.147676375e-41
15 159 58 9.147676375e-41
15 167 52 9.147676375e-41
15 176 47 9.147676375e-41
15 185 76 9.147676375e-41
15 195 38 9.147676375e-41
15 205 36 9.147676375e-41
15 213 76 9.147676375e-41
15 223 33 9.147676375e-41
15 231 67 9.147676375e-41
15 239 38 9.147676375e-41
15 245 45 9.147676375e-41
20 155 70 9.147676375e-41
20 164 73 9.147676375e-41
20 173 47 9.147676375e-41
20 180 84 9.147676375e-41
20 188 90 9.147676375e-41
20 198 93 9.147676375e-41
20 208 92 9.147676375e-41
20 217 88 9.147676375e-41
20 226 34 9.147676375e-41
20 234 74 9.147676375e-41
20 243 39 9.147676375e-41
20 250 43 9.147676375e-41
25 149 69 9.147676375e-41
25 156 58 9.147676375e-41
25 164 78 9.147676375e-41
25 171 83 9.147676375e-41
25 179 43 9.147676375e-41
25 187 97 9.147676375e-41
25 197 38 9.147676375e-41
25 207 34 9.147676375e-41
25 216 98 9.147676375e-41
25 224 92 9.147676375e-41
25 232 85 9.147676375e-41
25 240 79 9.147676375e-41
25 248 40 9.147676375e-41
25 255 64 9.147676375e-41
25 260 50 9.147676375e-41
30 149 74 9.147676375e-41
30 157 56 9.147676375e-41
30 165 50 9.147676375e-41
30 172 89 9.147676375e-41
30 177 43 9.147676375e-41
30 185 112 9.147676375e-41
30 195 113 9.147676375e-41
30 205 113 9.147676375e-41
30 215 109 9.147676375e-41
30 224 36 9.147676375e-41
30 232 37 9.147676375e-41
30 240 39 9.147676375e-41
30 248 40 9.147676375e-41
30 256 75 9.147676375e-41
30 264 47 9.147676375e-41
30 267 58 9.147676375e-41
35 147 64 9.147676375e-41
35 154 57 9.147676375e-41
35 163 50 9.147676375e-41
35 170 46 9.147676375e-41
35 176 43 9.147676375e-41
35 183 116 9.147676375e-41
35 192 39 9.147676375e-41
35 202 38 9.147676375e-41
35 212 37 9.147676375e-41
35 221 37 9.147676375e-41
35 228 107 9.147676375e-41
35 236 100 9.147676375e-41
35 245 92 9.147676375e-41
35 253 42 9.147676375e-41
35 260 78 9.147676375e-41
35 267 69 9.147676375e-41
35 273 54 9.147676375e-41
40 141 78 9.147676375e-41
40 149 61 9.147676375e-41
40 156 87 9.147676375e-41
40 163 94 9.147676375e-41
40 170 105 9.147676375e-41
40 177 43 9.147676375e-41
40 184 126 9.147676375e-41
40 193 131 9.147676375e-41
40 203 131 9.147676375e-41
40 213 38 9.147676375e-41
40 222 122 9.147676375e-41
40 230 115 9.147676375e-41
40 238 39 9.147676375e-41
40 245 100 9.147676375e-41
40 254 92 9.147676375e-41
40 262 43 9.147676375e-41
40 269 76 9.147676375e-41
40 276 67 9.147676375e-41
40 280 54 9.147676375e-41
45 141 69 9.147676375e-41
45 147 86 9.147676375e-41
45 154 91 9.147676375e-41
45 162 49 9.147676375e-41
45 168 46 9.147676375e-41
45 175 45 9.147676375e-41
45 182 44 9.147676375e-41
45 191 138 9.147676375e-41
45 201 138 9.147676375e-41
45 211 133 9.147676375e-41
45 221 38 9.147676375e-41
45 229 125 9.147676375e-41
45 237 118 9.147676375e-41
45 244 111 9.147676375e-41
45 252 103 9.147676375e-41
45 259 95 9.147676375e-41
45 267 43 9.147676375e-41
45 274 78 9.147676375e-41
45 281 68 9.147676375e-41
45 286 53 9.147676375e-41
50 137 84 9.147676375e-41
50 145 64 9.147676375e-41
50 152 55 9.147676375e-41
50 159 51 9.147676375e-41
50 166 47 9.147676375e-41
50 172 46 9.147676375e-41
50 178 136 9.147676375e-41
50 187 44 9.147676375e-41
50 197 42 9.147676375e-41
50 204 150 9.147676375e-41
50 212 156 9.147676375e-41
50 221 38 9.147676375e-41
50 228 141 9.147676375e-41
50 236 38 9.147676375e-41
50 243 120 9.147676375e-41
50 250 113 9.147676375e-41
50 258 40 9.147676375e-41
50 265 96 9.147676375e-41
50 272 90 9.147676375e-41
50 280 44 9.147676375e-41
50 287 69 9.147676375e-41
50 293 54 9.147676375e-41
55 133 74 9.147676375e-41
55 140 68 9.147676375e-41
55 148 93 9.147676375e-41
55 154 98 9.147676375e-41
55 162 49 9.147676375e-41
55 168 47 9.147676375e-41
55 174 47 9.147676375e-41
55 182 45 9.147676375e-41
55 191 146 9.147676375e-41
55 197 158 9.147676375e-41
55 203 168 9.147676375e-41
55 213 39 9.147676375e-41
55 221 38 9.147676375e-41
55 229 37 9.147676375e-41
55 236 37 9.147676375e-41
55 243 134 9.147676375e-41
55 249 125 9.147676375e-41
55 257 117 9.147676375e-41
55 265 108 9.147676375e-41
55 272 99 9.147676375e-41
55 280 43 9.147676375e-41
55 287 44 9.147676375e-41
55 294 74 9.147676375e-41
55 300 51 9.147676375e-41
60 127 80 9.147676375e-41
60 133 91 9.147676375e-41
60 141 92 9.147676375e-41
60 150 59 9.147676375e-41
60 157 99 9.147676375e-41
60 164 109 9.147676375e-41
60 170 47 9.147676375e-41
60 175 138 9.147676375e-41
60 183 46 9.147676375e-41
60 190 155 9.147676375e-41
60 197 165 9.147676375e-41
60 203 177 9.147676375e-41
60 213 178 9.147676375e-41
60 223 174 9.147676375e-41
60 231 166 9.147676375e-41
60 238 155 9.147676375e-41
60 244 147 9.147676375e-41
60 251 137 9.147676375e-41
60 258 128 9.147676375e-41
60 266 39 9.147676375e-41
60 273 39 9.147676375e-41
60 280 100 9.147676375e-41
60 287 92 9.147676375e-41
60 295 85 9.147676375e-41
60 303 77 9.147676375e-41
60 309 70 9.147676375e-41
65 123 87 9.147676375e-41
65 129 93 9.147676375e-41
65 137 96 9.147676375e-41
65 145 94 9.147676375e-41
65 154 97 9.147676375e-41
65 163 51 9.147676375e-41
65 169 118 9.147676375e-41
65 173 134 9.147676375e-41
65 180 47 9.147676375e-41
65 188 45 9.147676375e-41
65 193 165 9.147676375e-41
65 200 42 9.147676375e-41
65 209 39 9.147676375e-41
65 218 185 9.147676375e-41
65 227 37 9.147676375e-41
65 235 36 9.147676375e-41
65 242 162 9.147676375e-41
65 250 36 9.147676375e-41
65 256 144 9.147676375e-41
65 264 37 9.147676375e-41
65 271 124 9.147676375e-41
65 278 114 9.147676375e-41
65 285 107 9.147676375e-41
65 293 43 9.147676375e-41
65 300 91 9.147676375e-41
65 308 85 9.147676375e-41
65 316 53 9.147676375e-41
65 321 67 9.147676375e-41
70 123 93 9.147676375e-41
70 129 100 9.147676375e-41
70 139 67 9.147676375e-41
70 148 97 9.147676375e-41
70 157 100 9.147676375e-41
70 165 109 9.147676375e-41
70 171 123 9.147676375e-41
70 177 137 9.147676375e-41
70 184 147 9.147676375e-41
70 190 159 9.147676375e-41
70 197 42 9.147676375e-41
70 204 40 9.147676375e-41
70 211 191 9.147676375e-41
70 221 190 9.147676375e-41
70 230 36 9.147676375e-41
70 237 175 9.147676375e-41
70 244 166 9.147676375e-41
70 252 34 9.147676375e-41
70 259 150 9.147676375e-41
70 266 140 9.147676375e-41
70 273 133 9.147676375e-41
70 280 125 9.147676375e-41
70 288 40 9.147676375e-41
70 296 43 9.147676375e-41
70 303 102 9.147676375e-41
70 312 48 9.147676375e-41
70 320 53 9.147676375e-41
70 328 85 9.147676375e-41
70 332 67 9.147676375e-41
75 107 106 9.147676375e-41
75 113 120 9.147676375e-41
75 119 118 9.147676375e-41
75 125 111 9.147676375e-41
75 133 73 9.147676375e-41
75 142 69 9.147676375e-41
75 151 63 9.147676375e-41
75 159 104 9.147676375e-41
75 166 112 9.147676375e-41
75 173 51 9.147676375e-41
75 179 47 9.147676375e-41
75 186 45 9.147676375e-41
75 192 162 9.147676375e-41
75 198 176 9.147676375e-41
75 205 187 9.147676375e-41
75 212 197 9.147676375e-41
75 221 193 9.147676375e-41
75 229 186 9.147676375e-41
75 238 33 9.147676375e-41
75 246 174 9.147676375e-41
75 253 165 9.147676375e-41
75 262 33 9.147676375e-41
75 269 34 9.147676375e-41
75 277 37 9.147676375e-41
75 284 131 9.147676375e-41
75 292 40 9.147676375e-41
75 299 119 9.147676375e-41
75 307 45 9.147676375e-41
75 316 105 9.147676375e-41
75 325 53 9.147676375e-41
75 332 60 9.147676375e-41
75 337 71 9.147676375e-41
80 99 116 9.147676375e-41
80 104 106 9.147676375e-41
80 110 97 9.147676375e-41
80 117 87 9.147676375e-41
80 124 80 9.147676375e-41
80 130 144 9.147676375e-41
80 131 149 9.147676375e-41
80 133 143 9.147676375e-41
80 136 156 9.147676375e-41
80 139 160 9.147676375e-41
80 144 70 9.147676375e-41
80 148 157 9.147676375e-41
80 153 160 9.147676375e-41
80 157 164 9.147676375e-41
80 164 111 9.147676375e-41
80 170 120 9.147676375e-41
80 176 133 9.147676375e-41
80 183 46 9.147676375e-41
80 189 43 9.147676375e-41
80 195 168 9.147676375e-41
80 200 183 9.147676375e-41
80 207 194 9.147676375e-41
80 214 37 9.147676375e-41
80 221 36 9.147676375e-41
80 229 190 9.147676375e-41
80 239 33 9.147676375e-41
80 247 33 9.147676375e-41
80 254 32 9.147676375e-41
80 261 163 9.147676375e-41
80 270 33 9.147676375e-41
80 277 147 9.147676375e-41
80 285 38 9.147676375e-41
80 293 39 9.147676375e-41
80 303 43 9.147676375e-41
80 311 45 9.147676375e-41
80 320 49 9.147676375e-41
80 329 111 9.147676375e-41
80 336 106 9.147676375e-41
80 339 102 9.147676375e-41
80 342 96 9.147676375e-41
85 96 134 9.147676375e-41
85 100 138 9.147676375e-41
85 107 99 9.147676375e-41
85 114 91 9.147676375e-41
85 121 151 9.147676375e-41
85 127 162 9.147676375e-41
85 134 170 9.147676375e-41
85 135 136 9.147676375e-41
85 138 74 9.147676375e-41
85 140 147 9.147676375e-41
85 145 70 9.147676375e-41
85 149 104 9.147676375e-41
85 154 65 9.147676375e-41
85 158 109 9.147676375e-41
85 160 168 9.147676375e-41
85 164 115 9.147676375e-41
85 171 125 9.147676375e-41
85 178 49 9.147676375e-41
85 184 150 9.147676375e-41
85 192 160 9.147676375e-41
85 198 172 9.147676375e-41
85 203 187 9.147676375e-41
85 210 37 9.147676375e-41
85 215 210 9.147676375e-41
85 222 200 9.147676375e-41
85 231 33 9.147676375e-41
85 241 32 9.147676375e-41
85 249 183 9.147676375e-41
85 257 177 9.147676375e-41
85 265 30 9.147676375e-41
85 273 33 9.147676375e-41
85 281 36 9.147676375e-41
85 290 38 9.147676375e-41
85 298 143 9.147676375e-41
85 307 136 9.147676375e-41
85 316 45 9.147676375e-41
85 325 49 9.147676375e-41
85 334 53 9.147676375e-41
85 339 113 9.147676375e-41
85 343 76 9.147676375e-41
85 344 93 9.147676375e-41
90 92 130 9.147676375e-41
90 95 145 9.147676375e-41
90 101 151 9.147676375e-41
90 109 99 9.147676375e-41
90 114 158 9.147676375e-41
90 120 166 9.147676375e-41
90 127 172 9.147676375e-41
90 134 180 9.147676375e-41
90 137 133 9.147676375e-41
90 139 141 9.147676375e-41
90 143 111 9.147676375e-41
90 146 190 9.147676375e-41
90 151 67 9.147676375e-41
90 155 190 9.147676375e-41
90 159 116 9.147676375e-41
90 163 118 9.147676375e-41
90 165 58 9.147676375e-41
90 168 56 9.147676375e-41
90 174 135 9.147676375e-41
90 181 47 9.147676375e-41
90 187 157 9.147676375e-41
90 197 40 9.147676375e-41
90 201 170 9.147676375e-41
90 203 165 9.147676375e-41
90 207 37 9.147676375e-41
90 211 220 9.147676375e-41
90 215 220 9.147676375e-41
90 223 33 9.147676375e-41
90 232 31 9.147676375e-41
90 242 30 9.147676375e-41
90 251 187 9.147676375e-41
90 259 184 9.147676375e-41
90 267 30 9.147676375e-41
90 276 33 9.147676375e-41
90 284 160 9.147676375e-41
90 294 155 9.147676375e-41
90 304 151 9.147676375e-41
90 313 145 9.147676375e-41
90 323 46 9.147676375e-41
90 329 134 9.147676375e-41
90 335 127 9.147676375e-41
90 340 121 9.147676375e-41
90 344 79 9.147676375e-41
90 345 94 9.147676375e-41
95 89 142 9.147676375e-41
95 92 125 9.147676375e-41
95 96 159 9.147676375e-41
95 103 107 9.147676375e-41
95 110 166 9.147676375e-41
95 116 174 9.147676375e-41
95 123 179 9.147676375e-41
95 130 79 9.147676375e-41
95 138 72 9.147676375e-41
95 143 129 9.147676375e-41
95 146 67 9.147676375e-41
95 150 117 9.147676375e-41
95 154 64 9.147676375e-41
95 158 63 9.147676375e-41
95 161 192 9.147676375e-41
95 164 191 9.147676375e-41
95 167 137 9.147676375e-41
95 169 180 9.147676375e-41
95 172 145 9.147676375e-41
95 180 149 9.147676375e-41
95 187 156 9.147676375e-41
95 197 153 9.147676375e-41
95 203 163 9.147676375e-41
95 203 188 9.147676375e-41
95 204 202 9.147676375e-41
95 210 214 9.147676375e-41
95 215 33 9.147676375e-41
95 218 211 9.147676375e-41
95 226 200 9.147676375e-41
95 236 31 9.147676375e-41
95 246 29 9.147676375e-41
95 255 192 9.147676375e-41
95 264 188 9.147676375e-41
95 272 181 9.147676375e-41
95 281 33 9.147676375e-41
95 289 169 9.147676375e-41
95 298 166 9.147676375e-41
95 307 160 9.147676375e-41
95 316 157 9.147676375e-41
95 324 51 9.147676375e-41
95 330 145 9.147676375e-41
95 337 64 9.147676375e-41
95 341 125 9.147676375e-41
95 344 86 9.147676375e-41
95 345 95 9.147676375e-41
100 87 134 9.147676375e-41
100 90 127 9.147676375e-41
100 93 166 9.147676375e-41
100 100 110 9.147676375e-41
100 107 100 9.147676375e-41
100 114 89 9.147676375e-41
100 119 187 9.147676375e-41
100 126 195 9.147676375e-41
100 134 199 9.147676375e-41
100 139 210 9.147676375e-41
100 143 222 9.147676375e-41
100 148 207 9.147676375e-41
100 153 210 9.147676375e-41
100 158 198 9.147676375e-41
100 162 59 9.147676375e-41
100 168 188 9.147676375e-41
100 172 54 9.147676375e-41
100 173 172 9.147676375e-41
100 180 50 9.147676375e-41
100 187 223 9.147676375e-41
100 190 43 9.147676375e-41
100 192 245 9.147676375e-41
100 196 161 9.147676375e-41
100 198 252 9.147676375e-41
100 202 179 9.147676375e-41
100 202 210 9.147676375e-41
100 203 192 9.147676375e-41
100 213 33 9.147676375e-41
100 217 248 9.147676375e-41
100 220 244 9.147676375e-41
100 225 32 9.147676375e-41
100 229 233 9.147676375e-41
100 236 31 9.147676375e-41
100 246 31 9.147676375e-41
100 256 31 9.147676375e-41
100 266 31 9.147676375e-41
100 273 192 9.147676375e-41
100 282 32 9.147676375e-41
100 290 178 9.147676375e-41
100 299 37 9.147676375e-41
100 308 169 9.147676375e-41
100 317 47 9.147676375e-41
100 324 53 9.147676375e-41
100 330 60 9.147676375e-41
100 336 66 9.147676375e-41
100 339 134 9.147676375e-41
100 342 124 9.147676375e-41
100 343 119 9.147676375e-41
105 85 140 9.147676375e-41
105 86 155 9.147676375e-41
105 89 128 9.147676375e-41
105 93 177 9.147676375e-41
105 100 105 9.147676375e-41
105 107 96 9.147676375e-41
105 112 189 9.147676375e-41
105 117 85 9.147676375e-41
105 119 208 9.147676375e-41
105 123 228 9.147676375e-41
105 129 238 9.147676375e-41
105 137 246 9.147676375e-41
105 146 252 9.147676375e-41
105 151 253 9.147676375e-41
105 156 60 9.147676375e-41
105 160 58 9.147676375e-41
105 164 198 9.147676375e-41
105 168 191 9.147676375e-41
105 171 264 9.147676375e-41
105 173 265 9.147676375e-41
105 176 266 9.147676375e-41
105 179 156 9.147676375e-41
105 183 234 9.147676375e-41
105 184 230 9.147676375e-41
105 187 153 9.147676375e-41
105 191 152 9.147676375e-41
105 193 152 9.147676375e-41
105 196 162 9.147676375e-41
105 198 197 9.147676375e-41
105 200 175 9.147676375e-41
105 201 258 9.147676375e-41
105 211 260 9.147676375e-41
105 219 215 9.147676375e-41
105 222 32 9.147676375e-41
105 225 228 9.147676375e-41
105 230 204 9.147676375e-41
105 233 234 9.147676375e-41
105 237 240 9.147676375e-41
105 245 204 9.147676375e-41
105 255 205 9.147676375e-41
105 265 205 9.147676375e-41
105 275 32 9.147676375e-41
105 284 33 9.147676375e-41
105 291 187 9.147676375e-41
105 300 39 9.147676375e-41
105 309 45 9.147676375e-41
105 316 169 9.147676375e-41
105 323 164 9.147676375e-41
105 329 158 9.147676375e-41
105 334 150 9.147676375e-41
105 338 82 9.147676375e-41
105 340 94 9.147676375e-41
105 342 107 9.147676375e-41
110 82 224 9.147676375e-41
110 83 241 9.147676375e-41
110 84 150 9.147676375e-41
110 84 217 9.147676375e-41
110 86 132 9.147676375e-41
110 89 180 9.147676375e-41
110 92 118 9.147676375e-41
110 94 244 9.147676375e-41
110 98 210 9.147676375e-41
110 101 231 9.147676375e-41
110 105 231 9.147676375e-41
110 109 188 9.147676375e-41
110 112 206 9.147676375e-41
110 114 202 9.147676375e-41
110 119 247 9.147676375e-41
110 126 255 9.147676375e-41
110 132 261 9.147676375e-41
110 140 66 9.147676375e-41
110 147 207 9.147676375e-41
110 152 210 9.147676375e-41
110 156 286 9.147676375e-41
110 158 278 9.147676375e-41
110 161 213 9.147676375e-41
110 164 198 9.147676375e-41
110 168 192 9.147676375e-41
110 172 187 9.147676375e-41
110 176 183 9.147676375e-41
110 178 225 9.147676375e-41
110 182 208 9.147676375e-41
110 183 166 9.147676375e-41
110 185 201 9.147676375e-41
110 188 160 9.147676375e-41
110 189 187 9.147676375e-41
110 190 294 9.147676375e-41
110 196 286 9.147676375e-41
110 200 267 9.147676375e-41
110 205 37 9.147676375e-41
110 215 33 9.147676375e-41
110 220 258 9.147676375e-41
110 224 210 9.147676375e-41
110 228 206 9.147676375e-41
110 232 250 9.147676375e-41
110 237 205 9.147676375e-41
110 242 206 9.147676375e-41
110 247 210 9.147676375e-41
110 257 210 9.147676375e-41
110 266 205 9.147676375e-41
110 275 200 9.147676375e-41
110 285 195 9.147676375e-41
110 293 189 9.147676375e-41
110 301 183 9.147676375e-41
110 309 177 9.147676375e-41
110 317 54 9.147676375e-41
110 323 63 9.147676375e-41
110 328 162 9.147676375e-41
110 332 155 9.147676375e-41
110 336 97 9.147676375e-41
110 337 109 9.147676375e-41
110 338 131 9.147676375e-41
115 80 223 9.147676375e-41
115 80 243 9.147676375e-41
115 82 164 9.147676375e-41
115 83 165 9.147676375e-41
115 83 261 9.147676375e-41
115 85 185 9.147676375e-41
115 87 208 9.147676375e-41
115 91 191 9.147676375e-41
115 94 262 9.147676375e-41
115 98 203 9.147676375e-41
115 102 99 9.147676375e-41
115 106 92 9.147676375e-41
115 110 90 9.147676375e-41
115 113 256 9.147676375e-41
115 117 203 9.147676375e-41
115 120 265 9.147676375e-41
115 127 72 9.147676375e-41
115 133 283 9.147676375e-41
115 136 299 9.147676375e-41
115 142 210 9.147676375e-41
115 146 305 9.147676375e-41
115 151 213 9.147676375e-41
115 154 312 9.147676375e-41
115 159 200 9.147676375e-41
115 163 222 9.147676375e-41
115 167 195 9.147676375e-41
115 172 191 9.147676375e-41
115 176 225 9.147676375e-41
115 178 228 9.147676375e-41
115 180 219 9.147676375e-41
115 183 232 9.147676375e-41
115 190 45 9.147676375e-41
115 196 40 9.147676375e-41
115 200 290 9.147676375e-41
115 204 268 9.147676375e-41
115 207 263 9.147676375e-41
115 217 263 9.147676375e-41
115 222 221 9.147676375e-41
115 225 256 9.147676375e-41
115 230 209 9.147676375e-41
115 234 232 9.147676375e-41
115 239 233 9.147676375e-41
115 244 234 9.147676375e-41
115 249 212 9.147676375e-41
115 252 238 9.147676375e-41
115 261 212 9.147676375e-41
115 269 206 9.147676375e-41
115 278 200 9.147676375e-41
115 287 195 9.147676375e-41
115 296 45 9.147676375e-41
115 304 50 9.147676375e-41
115 311 54 9.147676375e-41
115 317 170 9.147676375e-41
115 323 71 9.147676375e-41
115 326 160 9.147676375e-41
115 330 157 9.147676375e-41
115 333 113 9.147676375e-41
115 335 130 9.147676375e-41
120 80 151 9.147676375e-41
120 80 171 9.147676375e-41
120 80 227 9.147676375e-41
120 80 247 9.147676375e-41
120 81 176 9.147676375e-41
120 82 267 9.147676375e-41
120 83 210 9.147676375e-41
120 84 282 9.147676375e-41
120 85 294 9.147676375e-41
120 88 300 9.147676375e-41
120 91 203 9.147676375e-41
120 92 293 9.147676375e-41
120 98 272 9.147676375e-41
120 102 201 9.147676375e-41
120 106 198 9.147676375e-41
120 110 197 9.147676375e-41
120 113 205 9.147676375e-41
120 116 198 9.147676375e-41
120 118 80 9.147676375e-41
120 121 78 9.147676375e-41
120 124 314 9.147676375e-41
120 130 70 9.147676375e-41
120 134 209 9.147676375e-41
120 138 323 9.147676375e-41
120 143 219 9.147676375e-41
120 148 59 9.147676375e-41
120 152 221 9.147676375e-41
120 157 204 9.147676375e-41
120 162 203 9.147676375e-41
120 166 327 9.147676375e-41
120 171 207 9.147676375e-41
120 175 325 9.147676375e-41
120 178 323 9.147676375e-41
120 182 223 9.147676375e-41
120 185 320 9.147676375e-41
120 193 313 9.147676375e-41
120 200 256 9.147676375e-41
120 203 263 9.147676375e-41
120 204 282 9.147676375e-41
120 205 279 9.147676375e-41
120 214 263 9.147676375e-41
120 220 219 9.147676375e-41
120 224 257 9.147676375e-41
120 228 210 9.147676375e-41
120 233 209 9.147676375e-41
120 238 34 9.147676375e-41
120 242 249 9.147676375e-41
120 247 230 9.147676375e-41
120 251 242 9.147676375e-41
120 255 237 9.147676375e-41
120 261 39 9.147676375e-41
120 267 207 9.147676375e-41
120 276 202 9.147676375e-41
120 285 197 9.147676375e-41
120 293 53 9.147676375e-41
120 299 183 9.147676375e-41
120 307 175 9.147676375e-41
120 313 68 9.147676375e-41
120 318 166 9.147676375e-41
120 323 162 9.147676375e-41
120 326 107 9.147676375e-41
120 328 123 9.147676375e-41
120 329 139 9.147676375e-41
125 79 167 9.147676375e-41
125 79 258 9.147676375e-41
125 79 316 9.147676375e-41
125 80 176 9.147676375e-41
125 80 219 9.147676375e-41
125 80 239 9.147676375e-41
125 80 309 9.147676375e-41
125 82 194 9.147676375e-41
125 82 297 9.147676375e-41
125 84 135 9.147676375e-41
125 86 130 9.147676375e-41
125 90 318 9.147676375e-41
125 94 314 9.147676375e-41
125 98 105 9.147676375e-41
125 102 334 9.147676375e-41
125 110 335 9.147676375e-41
125 115 336 9.147676375e-41
125 120 77 9.147676375e-41
125 123 209 9.147676375e-41
125 128 71 9.147676375e-41
125 136 346 9.147676375e-41
125 146 59 9.147676375e-41
125 152 51 9.147676375e-41
125 161 339 9.147676375e-41
125 166 340 9.147676375e-41
125 173 225 9.147676375e-41
125 178 220 9.147676375e-41
125 182 226 9.147676375e-41
125 185 226 9.147676375e-41
125 188 236 9.147676375e-41
125 194 41 9.147676375e-41
125 200 37 9.147676375e-41
125 203 260 9.147676375e-41
125 205 304 9.147676375e-41
125 206 282 9.147676375e-41
125 207 32 9.147676375e-41
125 216 260 9.147676375e-41
125 221 210 9.147676375e-41
125 224 257 9.147676375e-41
125 229 33 9.147676375e-41
125 234 34 9.147676375e-41
125 238 251 9.147676375e-41
125 240 249 9.147676375e-41
125 244 229 9.147676375e-41
125 247 227 9.147676375e-41
125 252 58 9.147676375e-41
125 256 228 9.147676375e-41
125 260 57 9.147676375e-41
125 265 47 9.147676375e-41
125 273 200 9.147676375e-41
125 283 51 9.147676375e-41
125 290 59 9.147676375e-41
125 297 183 9.147676375e-41
125 303 175 9.147676375e-41
125 309 75 9.147676375e-41
125 313 83 9.147676375e-41
125 317 97 9.147676375e-41
125 319 111 9.147676375e-41
125 320 123 9.147676375e-41
130 77 321 9.147676375e-41
130 78 272 9.147676375e-41
130 78 327 9.147676375e-41
130 79 180 9.147676375e-41
130 79 305 9.147676375e-41
130 80 185 9.147676375e-41
130 80 212 9.147676375e-41
130 80 241 9.147676375e-41
130 80 298 9.147676375e-41
130 82 202 9.147676375e-41
130 85 144 9.147676375e-41
130 90 137 9.147676375e-41
130 95 352 9.147676375e-41
130 100 356 9.147676375e-41
130 106 360 9.147676375e-41
130 111 87 9.147676375e-41
130 118 80 9.147676375e-41
130 126 73 9.147676375e-41
130 135 66 9.147676375e-41
130 144 375 9.147676375e-41
130 151 373 9.147676375e-41
130 159 369 9.147676375e-41
130 168 44 9.147676375e-41
130 178 40 9.147676375e-41
130 184 230 9.147676375e-41
130 190 43 9.147676375e-41
130 196 339 9.147676375e-41
130 203 38 9.147676375e-41
130 207 257 9.147676375e-41
130 207 320 9.147676375e-41
130 209 292 9.147676375e-41
130 210 309 9.147676375e-41
130 219 214 9.147676375e-41
130 222 212 9.147676375e-41
130 227 210 9.147676375e-41
130 232 210 9.147676375e-41
130 237 40 9.147676375e-41
130 239 52 9.147676375e-41
130 243 54 9.147676375e-41
130 246 243 9.147676375e-41
130 253 225 9.147676375e-41
130 256 216 9.147676375e-41
130 263 208 9.147676375e-41
130 268 200 9.147676375e-41
130 277 196 9.147676375e-41
130 285 191 9.147676375e-41
130 292 73 9.147676375e-41
130 298 82 9.147676375e-41
130 304 86 9.147676375e-41
130 308 96 9.147676375e-41
130 311 104 9.147676375e-41
130 312 141 9.147676375e-41
130 313 130 9.147676375e-41
135 78 279 9.147676375e-41
135 78 320 9.147676375e-41
135 79 261 9.147676375e-41
135 79 331 9.147676375e-41
135 80 194 9.147676375e-41
135 80 214 9.147676375e-41
135 82 171 9.147676375e-41
135 82 242 9.147676375e-41
135 84 338 9.147676375e-41
135 89 344 9.147676375e-41
135 92 349 9.147676375e-41
135 96 129 9.147676375e-41
135 99 114 9.147676375e-41
135 103 366 9.147676375e-41
135 107 371 9.147676375e-41
135 114 83 9.147676375e-41
135 120 373 9.147676375e-41
135 126 73 9.147676375e-41
135 134 66 9.147676375e-41
135 143 61 9.147676375e-41
135 151 51 9.147676375e-41
135 159 46 9.147676375e-41
135 169 42 9.147676375e-41
135 177 366 9.147676375e-41
135 185 40 9.147676375e-41
135 193 41 9.147676375e-41
135 200 39 9.147676375e-41
135 207 260 9.147676375e-41
135 210 271 9.147676375e-41
135 210 331 9.147676375e-41
135 213 302 9.147676375e-41
135 215 315 9.147676375e-41
135 218 218 9.147676375e-41
135 222 256 9.147676375e-41
135 227 211 9.147676375e-41
135 231 253 9.147676375e-41
135 236 48 9.147676375e-41
135 239 217 9.147676375e-41
135 246 241 9.147676375e-41
135 249 231 9.147676375e-41
135 254 57 9.147676375e-41
135 262 204 9.147676375e-41
135 270 60 9.147676375e-41
135 276 190 9.147676375e-41
135 282 184 9.147676375e-41
135 287 178 9.147676375e-41
135 293 91 9.147676375e-41
135 298 160 9.147676375e-41
135 302 108 9.147676375e-41
135 304 119 9.147676375e-41
135 305 123 9.147676375e-41
140 79 262 9.147676375e-41
140 80 284 9.147676375e-41
140 82 202 9.147676375e-41
140 82 294 9.147676375e-41
140 83 240 9.147676375e-41
140 84 229 9.147676375e-41
140 85 192 9.147676375e-41
140 89 173 9.147676375e-41
140 94 151 9.147676375e-41
140 96 148 9.147676375e-41
140 99 137 9.147676375e-41
140 102 116 9.147676375e-41
140 105 99 9.147676375e-41
140 111 343 9.147676375e-41
140 119 79 9.147676375e-41
140 126 348 9.147676375e-41
140 133 353 9.147676375e-41
140 142 356 9.147676375e-41
140 149 357 9.147676375e-41
140 152 360 9.147676375e-41
140 159 46 9.147676375e-41
140 165 366 9.147676375e-41
140 171 376 9.147676375e-41
140 180 39 9.147676375e-41
140 186 361 9.147676375e-41
140 194 353 9.147676375e-41
140 204 351 9.147676375e-41
140 208 256 9.147676375e-41
140 210 276 9.147676375e-41
140 212 42 9.147676375e-41
140 216 297 9.147676375e-41
140 220 216 9.147676375e-41
140 223 214 9.147676375e-41
140 224 219 9.147676375e-41
140 225 315 9.147676375e-41
140 229 45 9.147676375e-41
140 233 49 9.147676375e-41
140 236 219 9.147676375e-41
140 244 218 9.147676375e-41
140 246 226 9.147676375e-41
140 252 56 9.147676375e-41
140 259 59 9.147676375e-41
140 265 64 9.147676375e-41
140 271 69 9.147676375e-41
140 276 81 9.147676375e-41
140 280 176 9.147676375e-41
140 285 169 9.147676375e-41
140 291 106 9.147676375e-41
140 293 146 9.147676375e-41
140 295 131 9.147676375e-41
145 83 276 9.147676375e-41
145 85 222 9.147676375e-41
145 86 228 9.147676375e-41
145 86 289 9.147676375e-41
145 87 299 9.147676375e-41
145 91 202 9.147676375e-41
145 93 188 9.147676375e-41
145 96 170 9.147676375e-41
145 97 166 9.147676375e-41
145 102 124 9.147676375e-41
145 103 133 9.147676375e-41
145 104 105 9.147676375e-41
145 109 91 9.147676375e-41
145 116 84 9.147676375e-41
145 121 336 9.147676375e-41
145 130 68 9.147676375e-41
145 137 344 9.147676375e-41
145 145 349 9.147676375e-41
145 152 356 9.147676375e-41
145 159 50 9.147676375e-41
145 166 364 9.147676375e-41
145 170 349 9.147676375e-41
145 177 372 9.147676375e-41
145 187 369 9.147676375e-41
145 196 365 9.147676375e-41
145 205 357 9.147676375e-41
145 207 266 9.147676375e-41
145 209 44 9.147676375e-41
145 212 291 9.147676375e-41
145 216 294 9.147676375e-41
145 219 301 9.147676375e-41
145 222 252 9.147676375e-41
145 224 251 9.147676375e-41
145 225 251 9.147676375e-41
145 227 55 9.147676375e-41
145 231 245 9.147676375e-41
145 235 219 9.147676375e-41
145 238 235 9.147676375e-41
145 243 55 9.147676375e-41
145 250 208 9.147676375e-41
145 257 63 9.147676375e-41
145 262 68 9.147676375e-41
145 267 78 9.147676375e-41
145 272 87 9.147676375e-41
145 277 166 9.147676375e-41
145 282 107 9.147676375e-41
145 284 118 9.147676375e-41
145 285 132 9.147676375e-41
150 90 224 9.147676375e-41
150 91 246 9.147676375e-41
150 91 281 9.147676375e-41
150 92 263 9.147676375e-41
150 94 292 9.147676375e-41
150 98 187 9.147676375e-41
150 103 109 9.147676375e-41
150 103 129 9.147676375e-41
150 104 175 9.147676375e-41
150 106 171 9.147676375e-41
150 109 304 9.147676375e-41
150 111 164 9.147676375e-41
150 117 83 9.147676375e-41
150 124 75 9.147676375e-41
150 131 67 9.147676375e-41
150 139 60 9.147676375e-41
150 147 57 9.147676375e-41
150 156 324 9.147676375e-41
150 164 50 9.147676375e-41
150 173 331 9.147676375e-41
150 182 326 9.147676375e-41
150 184 44 9.147676375e-41
150 187 324 9.147676375e-41
150 192 346 9.147676375e-41
150 196 315 9.147676375e-41
150 198 313 9.147676375e-41
150 203 272 9.147676375e-41
150 204 274 9.147676375e-41
150 205 292 9.147676375e-41
150 210 49 9.147676375e-41
150 217 252 9.147676375e-41
150 222 219 9.147676375e-41
150 226 60 9.147676375e-41
150 230 220 9.147676375e-41
150 233 223 9.147676375e-41
150 239 60 9.147676375e-41
150 246 64 9.147676375e-41
150 252 192 9.147676375e-41
150 258 73 9.147676375e-41
150 263 173 9.147676375e-41
150 267 165 9.147676375e-41
150 271 157 9.147676375e-41
150 275 112 9.147676375e-41
150 276 129 9.147676375e-41
155 96 226 9.147676375e-41
155 98 212 9.147676375e-41
155 101 204 9.147676375e-41
155 103 108 9.147676375e-41
155 104 130 9.147676375e-41
155 106 97 9.147676375e-41
155 107 197 9.147676375e-41
155 109 146 9.147676375e-41
155 112 191 9.147676375e-41
155 115 84 9.147676375e-41
155 118 286 9.147676375e-41
155 121 77 9.147676375e-41
155 124 287 9.147676375e-41
155 133 67 9.147676375e-41
155 140 63 9.147676375e-41
155 149 56 9.147676375e-41
155 158 296 9.147676375e-41
155 168 294 9.147676375e-41
155 178 291 9.147676375e-41
155 186 284 9.147676375e-41
155 193 47 9.147676375e-41
155 199 49 9.147676375e-41
155 207 251 9.147676375e-41
155 212 63 9.147676375e-41
155 217 216 9.147676375e-41
155 220 241 9.147676375e-41
155 224 210 9.147676375e-41
155 229 210 9.147676375e-41
155 238 67 9.147676375e-41
155 244 194 9.147676375e-41
155 250 78 9.147676375e-41
155 255 85 9.147676375e-41
155 259 165 9.147676375e-41
155 263 155 9.147676375e-41
155 266 113 9.147676375e-41
155 269 122 9.147676375e-41
160 103 108 9.147676375e-41
160 105 104 9.147676375e-41
160 110 95 9.147676375e-41
160 111 223 9.147676375e-41
160 112 253 9.147676375e-41
160 114 152 9.147676375e-41
160 115 218 9.147676375e-41
160 118 266 9.147676375e-41
160 121 162 9.147676375e-41
160 123 273 9.147676375e-41
160 126 277 9.147676375e-41
160 130 278 9.147676375e-41
160 133 188 9.147676375e-41
160 135 278 9.147676375e-41
160 143 277 9.147676375e-41
160 150 271 9.147676375e-41
160 160 53 9.147676375e-41
160 168 260 9.147676375e-41
160 175 51 9.147676375e-41
160 182 51 9.147676375e-41
160 192 51 9.147676375e-41
160 201 244 9.147676375e-41
160 205 57 9.147676375e-41
160 208 219 9.147676375e-41
160 214 67 9.147676375e-41
160 223 210 9.147676375e-41
160 231 72 9.147676375e-41
160 237 76 9.147676375e-41
160 242 83 9.147676375e-41
160 246 176 9.147676375e-41
160 252 100 9.147676375e-41
160 256 110 9.147676375e-41
160 258 121 9.147676375e-41
160 258 141 9.147676375e-41
165 103 110 9.147676375e-41
165 107 101 9.147676375e-41
165 112 93 9.147676375e-41
165 117 152 9.147676375e-41
165 123 80 9.147676375e-41
165 128 74 9.147676375e-41
165 135 69 9.147676375e-41
165 140 66 9.147676375e-41
165 147 198 9.147676375e-41
165 154 57 9.147676375e-41
165 162 216 9.147676375e-41
165 171 54 9.147676375e-41
165 181 54 9.147676375e-41
165 190 231 9.147676375e-41
165 198 59 9.147676375e-41
165 205 217 9.147676375e-41
165 212 210 9.147676375e-41
165 219 204 9.147676375e-41
165 226 193 9.147676375e-41
165 232 184 9.147676375e-41
165 238 89 9.147676375e-41
165 243 98 9.147676375e-41
165 246 110 9.147676375e-41
165 249 152 9.147676375e-41
165 250 150 9.147676375e-41
170 101 121 9.147676375e-41
170 105 134 9.147676375e-41
170 112 96 9.147676375e-41
170 116 151 9.147676375e-41
170 122 159 9.147676375e-41
170 128 78 9.147676375e-41
170 134 172 9.147676375e-41
170 142 66 9.147676375e-41
170 149 63 9.147676375e-41
170 156 195 9.147676375e-41
170 164 57 9.147676375e-41
170 172 57 9.147676375e-41
170 182 58 9.147676375e-41
170 192 61 9.147676375e-41
170 200 212 9.147676375e-41
170 208 73 9.147676375e-41
170 213 197 9.147676375e-41
170 220 187 9.147676375e-41
170 226 84 9.147676375e-41
170 231 173 9.147676375e-41
170 237 98 9.147676375e-41
170 240 110 9.147676375e-41
170 243 124 9.147676375e-41
170 243 144 9.147676375e-41
175 103 123 9.147676375e-41
175 106 108 9.147676375e-41
175 113 96 9.147676375e-41
175 119 91 9.147676375e-41
175 125 85 9.147676375e-41
175 130 167 9.147676375e-41
175 137 173 9.147676375e-41
175 145 182 9.147676375e-41
175 154 185 9.147676375e-41
175 164 189 9.147676375e-41
175 174 191 9.147676375e-41
175 184 191 9.147676375e-41
175 194 189 9.147676375e-41
175 203 76 9.147676375e-41
175 210 79 9.147676375e-41
175 217 173 9.147676375e-41
175 224 89 9.147676375e-41
175 229 158 9.147676375e-41
175 233 150 9.147676375e-41
175 236 121 9.147676375e-41
175 237 129 9.147676375e-41
180 104 135 9.147676375e-41
180 107 144 9.147676375e-41
180 113 149 9.147676375e-41
180 119 156 9.147676375e-41
180 125 163 9.147676375e-41
180 131 167 9.147676375e-41
180 139 73 9.147676375e-41
180 148 70 9.147676375e-41
180 158 65 9.147676375e-41
180 168 64 9.147676375e-41
180 177 64 9.147676375e-41
180 187 67 9.147676375e-41
180 197 73 9.147676375e-41
180 204 79 9.147676375e-41
180 210 169 9.147676375e-41
180 216 163 9.147676375e-41
180 222 95 9.147676375e-41
180 227 104 9.147676375e-41
180 230 134 9.147676375e-41
180 231 132 9.147676375e-41
185 107 114 9.147676375e-41
185 111 144 9.147676375e-41
185 117 99 9.147676375e-41
185 123 160 9.147676375e-41
185 128 166 9.147676375e-41
185 134 171 9.147676375e-41
185 144 176 9.147676375e-41
185 154 178 9.147676375e-41
185 164 179 9.147676375e-41
185 174 179 9.147676375e-41
185 184 179 9.147676375e-41
185 193 176 9.147676375e-41
185 200 167 9.147676375e-41
185 207 87 9.147676375e-41
185 213 93 9.147676375e-41
185 218 146 9.147676375e-41
185 224 109 9.147676375e-41
185 226 118 9.147676375e-41
